-0.1143705 0.001802802 -1.322193
-0.1179171 0.01233971 -1.333452
-0.3158879 -0.5385915 2.087716
-0.1150009 0.01547515 -1.322134
-0.3193085 -0.5383134 2.077626
-0.1196347 0.0344184 -1.339219
-0.1201717 0.03324211 -1.331014
-0.1187482 0.02276218 -1.337634
-0.1163245 0.03324211 -1.321224
-0.1086106 -0.1239542 -1.31718
-0.1070461 -0.1132807 -1.314891
-0.1068715 -0.1029948 -1.315313
-0.1068632 -0.09175873 -1.314484
-0.1072487 -0.08203518 -1.313014
-0.3299316 -0.5386068 2.08298
-0.1072578 -0.06591076 -1.313084
-0.3345851 -0.5410055 2.073591
-0.3251952 -0.5413355 2.068937
-0.3304675 -0.5417032 2.060618
-0.1070234 -0.05059612 -1.312514
-0.3345026 -0.5382406 2.050157
-0.3518947 -0.5384232 2.058924
-0.6022535 -0.3020747 -2.262621
-0.5820959 -0.302237 -2.272322
-0.349133 -0.5382423 2.045104
-0.591238 -0.3049797 -2.243778
-0.5869213 -0.3051805 -2.234347
-0.5679694 -0.3115927 -2.196829
-0.5638266 -0.3123935 -2.187186
-0.5587852 -0.31257 -2.177898
-0.5534089 -0.3155621 -2.167779
-0.5489709 -0.3125898 -2.171156
-0.3397791 -0.5369136 2.04017
-0.5447009 -0.3145453 -2.14988
-0.5214324 -0.3257955 -2.102931
-0.5162964 -0.3238069 -2.103929
-0.525504 -0.3223274 -2.111146
-0.3484637 -0.537228 2.021988
-0.3755703 -0.5458636 1.734899
-0.3578537 -0.5387114 2.026642
-0.4461507 -0.5536067 1.801226
-0.4507633 -0.555576 1.791979
-0.4597141 -0.5557684 1.797518
-0.5359998 -0.3124348 -2.129863
-0.5307397 -0.3154646 -2.121711
-0.4572596 -0.5630859 1.783503
-0.4640613 -0.564549 1.788746
-0.5167787 -0.3265465 -2.093542
-0.5105484 -0.3243136 -2.084933
-0.4694602 -0.5659248 1.777853
-0.5074712 -0.326141 -2.074762
-0.4585682 -0.5642904 1.775521
-0.5028175 -0.3329259 -2.065372
-0.4731229 -0.564104 1.756276
-0.4645114 -0.5642185 1.762726
-0.4693781 -0.5619363 1.75442
-0.08677918 -0.4041755 -1.243483
-0.08592618 -0.4063033 -1.22304
-0.05928344 -0.4078519 -1.208813
-0.08763981 -0.4079463 -1.202034
-0.06456733 -0.4101264 -1.185114
-0.05322063 -0.4118623 -1.157306
-0.03279287 -0.4165145 -1.117003
-0.02813923 -0.4172152 -1.107613
-0.02406859 -0.4172705 -1.097934
-0.01983124 -0.4169149 -1.088338
-0.474114 -0.5669943 1.768463
-0.009570241 -0.4069077 -1.081728
-0.01417804 -0.414117 -1.079444
-0.008826494 -0.4072922 -1.069287
-0.4794935 -0.5735108 1.759433
-0.007260442 -0.3970441 -1.071702
-0.009757757 -0.3877137 -1.070243
-0.3889554 -0.5430762 1.727892
-0.3802162 -0.5445272 1.721926
-0.008398652 -0.3966088 -1.067889
-0.002995014 -0.5516834 1.369224
-0.009537876 -0.5515631 1.362977
-0.02914798 -0.5522965 1.387236
-0.0192619 -0.5515513 1.332262
-0.02765238 -0.5510116 1.360874
-0.03828919 -0.5521361 1.344841
-0.4751354 -0.5634506 1.745577
-0.4855164 -0.564104 1.745456
-0.4786854 -0.5598255 1.735641
-0.4882348 -0.5541879 1.739972
-0.4834214 -0.5686275 1.749684
-0.4845851 -0.5547827 1.726868
-0.4970029 -0.5557476 1.72228
-0.487993 -0.5564877 1.716861
-0.4899195 -0.553624 1.712974
-0.493882 -0.5521407 1.708083
-0.4986823 -0.564104 1.710462
-0.4988001 -0.564104 1.721028
-0.6006278 -0.3041011 -2.239125
-0.6052815 -0.3026124 -2.248514
-0.5913203 -0.3067931 -2.220345
-0.5866666 -0.3092469 -2.210955
-0.5820129 -0.3100029 -2.201565
-0.5772083 -0.3124979 -2.191871
-0.5727055 -0.3149472 -2.182786
-0.5680518 -0.3154145 -2.173396
-0.5025662 -0.564104 1.700691
-0.501034 -0.553624 1.699932
-0.4977923 -0.5745836 1.721336
-0.5011932 -0.5758594 1.711707
-0.5066885 -0.5742596 1.702994
-0.5633981 -0.3154229 -2.164006
-0.5581235 -0.3165311 -2.152159
-0.5535136 -0.3159653 -2.136696
-0.5344363 -0.3213754 -2.105783
-0.3932543 -0.5434785 1.719218
-0.3848698 -0.5434037 1.712537
-0.5447832 -0.3169993 -2.126447
-0.5071499 -0.564104 1.691266
-0.5109656 -0.553624 1.691931
-0.5401294 -0.3169931 -2.117057
-0.5137117 -0.564104 1.688567
-0.5261685 -0.3274997 -2.088888
-0.5215147 -0.3296975 -2.079498
-0.516861 -0.3310753 -2.070108
-0.5122073 -0.3295034 -2.060719
0.009074628 -0.4069077 -1.020791
0.003944099 -0.4069077 -1.029944
-0.0002992749 -0.4105428 -1.027841
0.004354417 -0.4105409 -1.018451
0.00770551 -0.4069077 -1.01169
-0.003456056 -0.4069077 -1.049669
-0.003886461 -0.4083607 -1.03776
-0.0004591942 -0.3964278 -1.039458
-0.002732754 -0.3964278 -1.050028
0.003994942 -0.3965777 -1.029932
-0.4009682 -0.5460482 1.701417
-0.005660474 -0.3870457 -1.037868
-0.006819963 -0.3859481 -1.048002
0.005650342 -0.3964278 -1.017993
-0.5113437 -0.5703155 1.693345
0.004354417 -0.3917559 -1.018451
-0.5066078 -0.5412728 1.679302
-0.5109532 -0.5435158 1.670534
-0.5159205 -0.5428809 1.685302
-0.5204287 -0.5443474 1.675014
-0.5159153 -0.5456129 1.660522
-0.00917083 -0.3859481 -1.058533
-0.008777082 -0.3755885 -1.059192
-0.008802772 -0.3755071 -1.045885
-0.3895236 -0.545009 1.703147
-0.005434811 -0.3649887 -1.048688
-0.002236247 -0.3649887 -1.055349
-0.004870653 -0.3689669 -1.060664
-0.002329171 -0.3546249 -1.055181
-0.007399857 -0.3441588 -1.047674
-0.007137418 -0.3440287 -1.059204
-0.5260395 -0.552995 1.665539
-0.007545412 -0.3548924 -1.041938
-0.009224892 -0.3335494 -1.069796
-0.007551432 -0.3336586 -1.056593
-0.007650852 -0.3440291 -1.068397
-0.004870653 -0.3286604 -1.060664
-0.0002169013 -0.3265573 -1.051274
-0.006307244 -0.3328857 -1.039007
0.00547266 -0.3252249 -1.037975
-0.3941772 -0.5470489 1.693757
-0.0002992749 -0.3290025 -1.027841
0.004354417 -0.3294574 -1.018451
0.0179283 -0.3237162 -1.015661
0.009008169 -0.327778 -1.009062
-0.5308686 -0.5524663 1.656237
-0.5205688 -0.5434312 1.651132
0.5273188 -0.3541117 0.008949161
0.5248891 -0.3433547 0.008232594
0.5145967 -0.3439775 0.01032186
0.5124129 -0.3530115 0.01634657
0.5209161 -0.3539814 0.02381575
0.528809 -0.3533019 0.03572524
-0.03441781 -0.5514377 1.320397
0.5153986 -0.3251004 0.001015425
0.5165951 -0.3233191 -0.02665353
0.5033406 -0.3231307 -0.01110888
0.4952823 -0.3224309 -0.02193415
-0.5252377 -0.5431281 1.641958
-0.5339178 -0.5541579 1.647281
-0.4061046 -0.547128 1.688463
0.5283674 -0.3383272 0.02023065
0.5348592 -0.3359641 0.0290947
0.5396134 -0.3346232 0.03794169
0.5302236 -0.336017 0.04259539
0.5349596 -0.3234483 0.02855182
0.5245417 -0.3247575 0.009223938
0.5209161 -0.3236438 0.02381575
0.526021 -0.3233612 0.03325903
0.5396134 -0.326414 0.03794169
0.5521734 -0.3440291 0.06328404
0.548504 -0.3515016 0.05670309
0.5441061 -0.3440291 0.07075775
0.5442671 -0.3374931 0.04733145
0.5348773 -0.3379534 0.05198514
0.5489208 -0.3364443 0.05672121
0.539531 -0.3365613 0.0613749
0.5442671 -0.329415 0.04733145
0.5348773 -0.3283962 0.05198514
0.5395337 -0.329569 0.06115294
0.5535743 -0.3261806 0.06611097
0.5441847 -0.3261727 0.07076466
0.5488385 -0.3250364 0.08015454
0.5582281 -0.3252822 0.07550085
0.5640028 -0.3321947 0.08433509
0.5534921 -0.3270961 0.0895443
0.5570271 -0.3333492 0.09965849
0.5687553 -0.3332224 0.09410727
0.5726732 -0.3407704 0.1039839
0.5680729 -0.3433499 0.1189641
-0.5269182 -0.553624 1.638321
-0.5274799 -0.564104 1.637188
-0.005732536 -0.3859481 -1.025148
-0.007818222 -0.3755778 -1.014683
-0.008928239 -0.3649887 -1.035261
-0.00562644 -0.3880712 -1.01452
-0.5370191 -0.564104 1.641539
-0.5393085 -0.5687349 1.637541
-0.01077658 -0.3545088 -1.023842
-0.007724702 -0.3440291 -1.035857
-0.009112 -0.3446905 -1.022534
-0.5439196 -0.5732566 1.627616
-0.5365305 -0.5747751 1.624003
-0.004474044 -0.3335494 -1.025772
-0.5447969 -0.5744441 1.616945
-0.003330648 -0.3342681 -1.011449
-0.001521647 -0.3326408 -1.003812
-0.6167115 -0.3026757 -2.247365
-0.6194072 -0.3051723 -2.229817
-0.6100175 -0.3038565 -2.234471
-0.6073155 -0.3038243 -2.22411
-0.599674 -0.3049465 -2.212002
-0.6099924 -0.303836 -2.211398
-0.605446 -0.3041362 -2.201648
-0.6008425 -0.3057471 -2.192382
-0.58529 -0.3124766 -2.184353
-0.5961387 -0.3093153 -2.182868
-0.5868313 -0.3160294 -2.164088
-0.5774416 -0.3171428 -2.168742
-0.5902717 -0.3123761 -2.172741
-0.5554346 -0.5772929 1.606377
-0.5438375 -0.5751268 1.604183
-0.5700419 -0.5826672 1.528067
-0.5589741 -0.5817367 1.516851
-0.5736648 -0.5826691 1.5112
-0.5821776 -0.319198 -2.154699
-0.5714094 -0.3189625 -2.154243
-0.5774868 -0.3199893 -2.144503
-0.5588267 -0.3183388 -2.131183
-0.5682164 -0.3198966 -2.126529
-0.5402119 -0.3261849 -2.093624
-0.5495931 -0.3210765 -2.11019
-0.5575836 -0.3226725 -2.104503
-0.5496016 -0.3275198 -2.08897
-0.554173 -0.3203348 -2.121793
-0.5635627 -0.3209504 -2.11714
-0.5449479 -0.3260974 -2.079581
-0.5355582 -0.3250908 -2.084234
-0.5404412 -0.3227163 -2.070284
-0.5377007 -0.3230687 -2.071476
-0.5356404 -0.3243884 -2.060801
-0.5262507 -0.328786 -2.065454
-0.520797 -0.3242927 -2.054451
-0.5315635 -0.3234953 -2.050087
-0.1737019 -0.3928233 -1.380272
-0.1996993 -0.3910853 -1.394514
-0.1983135 -0.3940372 -1.369913
-0.1869677 -0.3949417 -1.356776
-0.177106 -0.553624 2.334732
-0.1724334 -0.553624 2.344113
-0.1655462 -0.5537318 2.343929
-0.1714582 -0.5556799 2.331933
-0.1823893 -0.553624 2.325655
-0.1761118 -0.5585712 2.322544
-0.1807656 -0.5603791 2.313154
-0.1466323 -0.4005933 -1.28009
-0.1386526 -0.3989969 -1.301786
-0.1563902 -0.3993291 -1.299693
-0.1904586 -0.5538599 2.31905
0.001115859 -0.3649887 -0.9934537
-0.005404234 -0.3649887 -1.001919
-0.005951941 -0.3748998 -1.001137
-0.1901556 -0.556362 2.317807
-0.000463903 -0.3715516 -0.9809747
0.005210519 -0.3649887 -0.9837868
0.002247691 -0.3649887 -0.9719014
0.0002834201 -0.3545088 -0.9930413
-0.00551337 -0.3545088 -1.001864
0.004882395 -0.3545088 -0.9836242
-0.001694918 -0.3440291 -0.9920607
-0.005253851 -0.3440291 -1.001993
-0.1948093 -0.5570258 2.308418
-0.0007306933 -0.3441709 -0.9810407
0.00371474 -0.3545088 -0.971734
-0.001857519 -0.3326796 -0.9825511
-0.1854194 -0.5564293 2.303764
0.004272163 -0.3267173 -0.995018
0.008925855 -0.3248721 -0.9856281
0.004189789 -0.3279132 -0.9715848
0.01357955 -0.3268205 -0.9762385
0.008843541 -0.3283724 -0.9621952
0.02023989 -0.3272887 -0.9624841
0.01349723 -0.3302275 -0.9528053
0.01815093 -0.3306445 -0.9434154
0.02754068 -0.3269202 -0.9480691
0.02280468 -0.3287696 -0.9340255
0.03168917 -0.3226346 -0.9389422
-0.1872294 -0.553624 2.300112
0.02745837 -0.3264097 -0.9246359
0.03503597 -0.3222535 -0.9283915
-0.2033609 -0.553637 2.301159
-0.213424 -0.5291272 2.270859
-0.2087705 -0.5294064 2.280248
-0.1997694 -0.5279143 2.275155
0.03256702 -0.3231589 -0.9146662
-0.2195566 -0.5298127 2.262382
-0.2117436 -0.5296247 2.249607
0.04150182 -0.3206772 -0.9198997
-0.2231178 -0.532204 2.251299
0.04709536 -0.3211744 -0.9085934
0.0356248 -0.3224529 -0.9052908
0.04141951 -0.3213907 -0.8964665
0.05673915 -0.3229229 -0.8903592
0.04809105 -0.3219444 -0.8822758
-0.2188329 -0.532514 2.237746
-0.2273852 -0.5368766 2.242689
0.05463392 -0.3233746 -0.869168
-0.232039 -0.5358473 2.233299
-0.222649 -0.5350102 2.228646
-0.2366925 -0.5355264 2.22391
0.6470298 -0.3249499 0.324357
0.6491998 -0.3262066 0.3102247
0.6335533 -0.3259202 0.3190025
0.6499429 -0.3251699 0.3336319
0.649785 -0.3292862 0.3286588
-0.2273026 -0.538515 2.219256
-0.2319564 -0.5373648 2.209866
-0.2413464 -0.5378031 2.21452
-0.2460001 -0.537937 2.20513
-0.2366102 -0.5361151 2.200476
-0.2501148 -0.5322765 2.196828
-0.2428542 -0.5335383 2.191875
-0.2556871 -0.5326583 2.187993
-0.6385578 -0.3045177 -2.24001
-0.6270205 -0.3015124 -2.255612
-0.6444666 -0.3004052 -2.258582
-0.6273133 -0.305232 -2.219423
-0.6092919 -0.3065605 -2.189175
-0.6033648 -0.3088472 -2.17206
-0.5949755 -0.3118631 -2.160052
-0.3163821 -0.5286127 2.228316
-0.2459176 -0.5368079 2.181697
-0.5925506 -0.3127548 -2.150314
-0.2553075 -0.5342325 2.18635
-0.5869137 -0.3165456 -2.140655
-0.2456629 -0.5483884 2.205109
-0.2506537 -0.5494193 2.19574
-0.2476463 -0.553624 2.19425
-0.5849619 -0.3126554 -2.128757
-0.5781472 -0.3131779 -2.121608
-0.5603899 -0.3247156 -2.086195
-0.5729526 -0.3168677 -2.112486
-0.5682988 -0.319815 -2.103096
-0.2467335 -0.553624 2.182086
-0.2553075 -0.55312 2.18635
-0.5543379 -0.3254951 -2.074927
-0.549684 -0.3249754 -2.065537
-0.5450304 -0.3240684 -2.056147
-0.503147 -0.3700446 -1.971639
-0.4972671 -0.3649887 -1.974553
-0.5076914 -0.3626691 -1.980808
-0.2505714 -0.53924 2.172307
-0.494857 -0.3525801 -1.975748
-0.5076243 -0.3545088 -1.981562
-0.2599613 -0.5387939 2.17696
-0.2646149 -0.5382205 2.167571
-0.5103216 -0.3440291 -1.986115
-0.4988855 -0.3448536 -1.98664
-0.2552249 -0.5340217 2.162917
-0.2599613 -0.5434715 2.17696
-0.2503869 -0.5498784 2.172268
-0.2646149 -0.5526243 2.167571
-0.2598787 -0.5341226 2.153527
-0.5305888 -0.3229567 -2.028718
-0.5217619 -0.3273793 -2.009198
-0.5146369 -0.32476 -2.014809
0.3259004 -0.329532 -0.3020161
0.3203498 -0.3279216 -0.327089
0.314362 -0.3280594 -0.3188949
0.3344421 -0.329286 -0.306015
0.3341941 -0.3289539 -0.2938316
0.3510288 -0.3295282 -0.2426031
0.3575411 -0.3298751 -0.2550011
0.3457845 -0.3278487 -0.2631018
0.3747714 -0.3284278 -0.2247131
0.3555962 -0.3291461 -0.2289869
0.3849117 -0.3277594 -0.1887213
0.3788791 -0.3268406 -0.1748409
0.3992319 -0.3285464 -0.1821418
0.3964434 -0.3243767 -0.1583607
0.4127824 -0.3266019 -0.1201574
0.4224927 -0.326756 -0.1028478
0.4309348 -0.3273628 -0.1095296
0.42278 -0.3247473 -0.08832276
0.4369848 -0.3264626 -0.09833407
-0.2692686 -0.5395361 2.158181
-0.2645325 -0.5346338 2.144137
-0.2739224 -0.536676 2.148791
-0.2692686 -0.5450038 2.158181
-0.259536 -0.5539174 2.155049
-0.4269011 -0.5432131 1.652217
-0.4216145 -0.5421239 1.660871
-0.4193571 -0.5428828 1.646738
-0.6750383 -0.2930717 -2.318755
-0.6609652 -0.2943543 -2.331805
-0.6752133 -0.2943004 -2.340639
-0.6707955 -0.2947142 -2.309585
-0.6613944 -0.2991716 -2.29225
-0.6523769 -0.2986744 -2.307026
-0.6421337 -0.29866 -2.299901
-0.6498169 -0.2975544 -2.275399
-0.629626 -0.3003708 -2.268021
-0.2739224 -0.5464369 2.148791
-0.2730244 -0.553624 2.148346
-0.3600262 -0.3706223 -1.666106
-0.3589643 -0.3722173 -1.657122
-0.3495746 -0.37225 -1.661776
-0.3449209 -0.369794 -1.652386
-0.3543106 -0.3703343 -1.647732
-0.3496569 -0.3665494 -1.638342
-0.3402672 -0.3664423 -1.642996
-0.3448157 -0.3697577 -1.629139
-0.278576 -0.5351743 2.139401
-0.2691861 -0.5361437 2.134748
-0.3407642 -0.3759329 -1.620399
-0.3271168 -0.3748255 -1.614599
-0.3297977 -0.3755828 -1.625207
-0.2832298 -0.534047 2.130012
-0.3356959 -0.3785738 -1.610173
-0.2738398 -0.5328976 2.125358
-0.3267256 -0.3754684 -1.602923
-0.3310421 -0.3785905 -1.600783
-0.3248894 -0.3760386 -1.592137
-0.2751599 -0.553624 2.146294
-0.3216523 -0.3718163 -1.605437
-0.3117285 -0.5304505 2.237706
-0.3169986 -0.372368 -1.596047
-0.4788718 -0.5532179 1.713007
-0.3171564 -0.3756037 -1.566365
-0.3098593 -0.3756444 -1.583354
-0.3182904 -0.3756763 -1.584098
-0.5014278 -0.5431443 1.676734
-0.3032452 -0.375882 -1.567365
-0.3074546 -0.376895 -1.551174
-0.2951768 -0.3783637 -1.542945
-0.4972178 -0.5442249 1.674648
-0.500724 -0.5432769 1.664689
-0.004235148 -0.3860399 -0.9604104
-0.004014552 -0.3863961 -0.9374413
-0.00484097 -0.3755054 -0.9430568
-0.5065254 -0.5437912 1.655868
-0.002480805 -0.3649887 -0.9584234
-0.003186941 -0.356173 -0.9446352
0.0001240373 -0.3663894 -0.9344811
-0.511179 -0.5451599 1.646478
-0.5156963 -0.5517695 1.636824
-0.521219 -0.5431443 1.639758
-0.001548529 -0.3545088 -0.9578774
0.001552343 -0.3531431 -0.9314632
-0.003178477 -0.3440291 -0.9445405
-0.003763139 -0.3440291 -0.9559469
-0.001983106 -0.3440965 -0.9356968
0.007833183 -0.3645482 -0.9164104
0.009102821 -0.3537729 -0.9144726
-0.2554721 -0.5303127 2.233217
-0.5176469 -0.564104 1.633428
-0.003026545 -0.3445339 -0.9641986
-0.001410425 -0.3325998 -0.9571683
-0.002712846 -0.3335494 -0.9619124
0.0008420944 -0.3333846 -0.9452736
-0.0006287694 -0.3377129 -0.934108
-0.5208125 -0.5739907 1.627041
0.008760989 -0.3302859 -0.9387617
0.003273368 -0.3333447 -0.925215
0.01341474 -0.3296145 -0.9293718
0.008678675 -0.3292373 -0.9153285
0.01806843 -0.3293413 -0.9199822
-0.5203528 -0.5747926 1.604012
0.02272213 -0.3330482 -0.9105923
0.01333237 -0.3286573 -0.9059386
0.02737582 -0.3296276 -0.9012024
0.01798606 -0.3283612 -0.8965487
0.03353977 -0.323707 -0.892561
0.02263981 -0.326743 -0.8871589
0.04007876 -0.3231395 -0.8801076
0.0272935 -0.3263892 -0.8777692
0.03258836 -0.3277646 -0.8649845
-0.5336387 -0.5751203 1.601161
0.04756385 -0.323316 -0.858428
-0.26076 -0.5326647 2.235838
0.04125458 -0.3253371 -0.8495998
0.04590839 -0.3242632 -0.84021
0.0589031 -0.3249869 -0.8362563
-0.4314892 -0.545293 1.642072
-0.52514 -0.5765821 1.618309
0.05252123 -0.3242523 -0.8271585
0.06092149 -0.3263252 -0.8125427
0.5095782 -0.343435 0.09491503
0.5239372 -0.3329527 0.1020309
0.520669 -0.3388671 0.09411573
0.5159329 -0.3372992 0.1081592
-0.3019235 -0.5420448 2.257489
-0.3078322 -0.5330032 2.246132
0.5176518 -0.3335494 0.1116272
0.531935 -0.3326193 0.1119244
0.5205866 -0.3273181 0.1175488
-0.5391012 -0.5784122 1.59014
0.5251738 -0.3293715 0.1270199
0.5359575 -0.3326765 0.1216273
0.530285 -0.333639 0.1371174
0.5392363 -0.3335605 0.1315789
-0.4174394 -0.5443047 1.635877
-0.5574794 -0.5788519 1.592087
0.5449226 -0.3327489 0.1405764
0.5345478 -0.3306512 0.1457182
0.5485913 -0.3291296 0.1504543
0.5392015 -0.3280102 0.155108
0.5441486 -0.331331 0.1700653
0.5532449 -0.3302754 0.1598443
0.5579489 -0.333389 0.1693355
0.5624731 -0.3354266 0.1786768
0.5521976 -0.3361995 0.183902
0.5575002 -0.3330085 0.1920295
-0.5437549 -0.5793298 1.58075
-0.5600246 -0.5803295 1.577077
0.567206 -0.330891 0.1880134
-0.5354861 -0.577046 1.572906
0.5624701 -0.3272678 0.2020571
0.5718598 -0.3285264 0.1974034
0.5659027 -0.3234127 0.212449
0.5707482 -0.3233373 0.2204757
0.5824115 -0.3266794 0.2163327
0.5783998 -0.3248398 0.2294365
-0.5631183 -0.5815333 1.561152
-0.5581073 -0.5837189 1.556638
-0.1739361 -0.3996488 -1.278512
-0.1823312 -0.3980814 -1.301632
-0.1933504 -0.3995401 -1.2767
-0.1630166 -0.4034621 -1.248406
-0.1669279 -0.400304 -1.272034
-0.1563793 -0.4048572 -1.226274
-0.1501641 -0.4038972 -1.248199
-0.1161974 -0.4113737 -1.150107
-0.1219358 -0.4089843 -1.180816
-0.1398164 -0.4087396 -1.186455
-0.2840146 -0.3840382 -1.473002
-0.2988707 -0.3836559 -1.481697
-0.3038253 -0.3846881 -1.465336
-0.2849369 -0.3850928 -1.459431
-0.5560794 -0.5841677 1.536821
-0.2551386 -0.3918017 -1.388461
-0.2585932 -0.390992 -1.408
-0.2653814 -0.3915887 -1.399575
-0.05997479 -0.5523704 1.282501
-0.04728335 -0.5518521 1.304057
-0.04648054 -0.5533655 1.28641
-0.05700731 -0.5526583 1.263521
-0.25275 -0.3915224 -1.370083
-0.2440653 -0.3926942 -1.381023
-0.2479675 -0.3928807 -1.363217
-0.2329829 -0.3941855 -1.373406
-0.2426062 -0.3938063 -1.350611
-0.5665208 -0.5823338 1.544855
-0.2389023 -0.3949854 -1.335824
-0.2317669 -0.3969002 -1.312937
-0.2230935 -0.3944967 -1.33487
-0.2080289 -0.5611485 2.069349
-0.2123158 -0.5641164 2.061195
-0.2086363 -0.5639733 2.057799
-0.2256498 -0.3970404 -1.304793
-0.2009622 -0.3960428 -1.313277
-0.2073015 -0.3987876 -1.289933
-0.2202924 -0.3997711 -1.269588
0.3847013 -0.3262169 -0.115235
0.3644079 -0.3267203 -0.1208811
0.3774695 -0.3248628 -0.1018941
0.3976541 -0.32445 -0.05961764
0.4122317 -0.3228853 -0.04517221
0.4212376 -0.3243179 -0.06820691
-0.2620261 -0.5324377 2.224468
0.4394101 -0.3253099 -0.006875634
0.4324287 -0.3256338 -0.01402986
0.428946 -0.322723 0.00494349
0.469231 -0.3470646 0.06112778
0.4657707 -0.3440291 0.05306911
0.4596782 -0.3428954 0.06545246
-0.1672555 -0.553624 2.32985
0.4644951 -0.3513981 0.07517135
0.4738848 -0.3509101 0.07051766
-0.1667199 -0.5536245 2.31789
-0.1713757 -0.5561181 2.3085
0.4599236 -0.343469 0.04234827
0.4615227 -0.3440291 0.04557478
0.4588946 -0.3442068 0.04169834
0.446635 -0.3232557 0.03246629
0.4499429 -0.3241327 0.04689217
0.4599236 -0.3258804 0.04234827
0.4631963 -0.3257402 0.05285728
0.469231 -0.3417801 0.06112778
-0.1986392 -0.5588657 2.064695
0.472092 -0.3335494 0.06690037
0.4637522 -0.3335494 0.07418537
0.469231 -0.3240904 0.06112778
0.4598413 -0.3265625 0.06578147
-0.624325 -0.3036341 -2.145437
-0.6319374 -0.3052811 -2.15229
-0.6265137 -0.3057867 -2.140654
-0.5267611 -0.3649887 -1.901454
-0.5174376 -0.3670427 -1.906075
-0.5200955 -0.3649887 -1.911438
-0.5283383 -0.3635965 -1.898521
-0.5250412 -0.3681775 -1.890553
-0.5119607 -0.3743217 -1.895024
-0.5168003 -0.3748423 -1.882181
-0.5081302 -0.3777353 -1.887295
-0.5034765 -0.3795792 -1.877906
-0.5128663 -0.377848 -1.873252
-0.1759472 -0.5533946 2.299965
-0.5282369 -0.3622457 -1.91084
-0.5280119 -0.3605995 -1.923176
-0.5082124 -0.3794729 -1.863862
-0.4988227 -0.3796419 -1.868516
-0.4941691 -0.3779522 -1.859126
-0.5028754 -0.3766968 -1.853093
-0.4925113 -0.3754684 -1.855781
-0.5009247 -0.3649887 -1.849158
-0.492121 -0.3649887 -1.854994
0.007028878 -0.3981131 -0.8209407
0.004680932 -0.3954105 -0.8348322
0.01631415 -0.4081231 -0.8255427
0.01412576 -0.4064496 -0.8351955
-0.1895748 -0.5285959 2.270959
-0.199298 -0.5293542 2.252161
-0.2082497 -0.5287595 2.234508
0.0005670786 -0.3754684 -0.8528271
8.946657E-05 -0.3762712 -0.8628602
-0.001239479 -0.3873568 -0.8612857
0.0006845593 -0.3859481 -0.8390057
-5.173683E-05 -0.3754684 -0.8394773
0.003096223 -0.3647136 -0.853694
0.002443254 -0.3649887 -0.8420606
-0.2141525 -0.532519 2.224087
0.00435847 -0.3658729 -0.8302426
-0.2179127 -0.536203 2.214602
0.001988471 -0.3545088 -0.8418353
0.001515269 -0.3439971 -0.8339694
-0.000785172 -0.3444175 -0.8570652
-0.06787711 -0.5534096 1.277265
0.003585219 -0.3545663 -0.8310413
-0.2171677 -0.563975 2.050909
-0.2099077 -0.5645463 2.046115
0.00183028 -0.3335961 -0.8636856
0.003361225 -0.3341802 -0.8363843
-0.2223229 -0.532693 2.205385
0.008431494 -0.328318 -0.8450284
0.0130288 -0.3276359 -0.8361156
-0.2318738 -0.5355984 2.186433
0.00834924 -0.3292717 -0.8215952
0.01792037 -0.3265353 -0.8245933
0.00834924 -0.4258279 -0.8215952
0.01989496 -0.4174148 -0.8232932
0.017739 -0.4218472 -0.8262489
0.01300287 -0.4243485 -0.8122053
0.01905537 -0.4173876 -0.8035598
0.01765656 -0.4215096 -0.8028157
0.01381296 -0.4064728 -0.8112657
0.01765656 -0.4101535 -0.8028157
-0.2365276 -0.5342931 2.177043
-0.2411814 -0.5335683 2.167653
-0.2476509 -0.3955156 -1.315162
-0.245835 -0.5336148 2.158263
-0.2399736 -0.3981501 -1.290009
-0.2013493 -0.4053396 -1.222303
-0.2040642 -0.4016145 -1.256815
-0.2169014 -0.4010487 -1.255464
-0.174632 -0.4066799 -1.201762
-0.1826026 -0.4052379 -1.217301
-0.1929191 -0.4057776 -1.196251
-0.1605702 -0.4082564 -1.182432
-0.1869085 -0.4089627 -1.159119
-0.1627345 -0.4105347 -1.14584
-0.2411814 -0.5525223 2.167653
-0.2359502 -0.5533602 2.178208
-0.142706 -0.4130915 -1.130774
-0.1595911 -0.4130452 -1.127515
-0.138327 -0.4153533 -1.107157
0.004282832 -0.4283295 -0.8069904
0.007547438 -0.4274552 -0.7978055
0.01138449 -0.4273112 -0.7880106
0.01915133 -0.4173874 -0.7918601
0.02090323 -0.4173874 -0.7810321
0.01685703 -0.4276036 -0.7790267
0.01375151 -0.4058806 -0.7891839
-0.2126827 -0.5655178 2.059959
0.01615345 -0.4072745 -0.7814083
0.004622221 -0.3940037 -0.8067265
0.006807864 -0.3973608 -0.792563
-0.2474357 -0.5540079 2.160148
0.002052248 -0.3863866 -0.8200426
0.002654254 -0.385572 -0.7996459
-0.2504888 -0.5330037 2.148873
-0.2551426 -0.5348214 2.139483
0.02233118 -0.4169279 -0.7699015
0.022228 -0.4237009 -0.7699926
-0.1991095 -0.5850633 2.087345
-0.1987215 -0.5756527 2.088128
-0.1950879 -0.5745836 2.086327
0.0009017587 -0.3757928 -0.8146667
0.004700661 -0.3343602 -0.8061364
0.004552126 -0.3335494 -0.8197134
0.002239168 -0.344547 -0.8128557
-0.2597961 -0.5377778 2.130094
-0.2644499 -0.5365866 2.120704
0.01300287 -0.3275753 -0.8122053
0.01765656 -0.3280972 -0.8028157
0.007253289 -0.3325936 -0.7976596
0.02328682 -0.3290388 -0.7927296
0.01392162 -0.3314203 -0.7861443
0.02248067 -0.3307993 -0.771487
0.4128109 -0.2847363 -2.554259
0.4829452 -0.3312348 0.159597
0.4969887 -0.3282186 0.1643331
0.492335 -0.3275939 0.1549433
0.4876997 -0.333566 0.1689227
-0.1057782 -0.5233428 2.416457
-0.1098205 -0.522511 2.40651
-0.1155311 -0.5243853 2.421178
0.4922526 -0.3258682 0.1783766
0.5001867 -0.3228945 0.1729538
-0.1207287 -0.5224053 2.411921
0.4987346 -0.3231584 0.1871432
-0.1158966 -0.523477 2.395319
-0.130206 -0.5230818 2.407421
0.4993969 -0.323561 0.1969001
0.5084105 -0.323211 0.1889811
-0.1355254 -0.526873 2.385414
0.5156034 -0.3255209 0.2018923
0.5054638 -0.3231396 0.2073593
0.5194733 -0.3226148 0.2110298
-0.1230969 -0.5253998 2.377853
0.5118413 -0.321837 0.2160577
0.5329794 -0.3213501 0.2286515
0.5312957 -0.3213043 0.2640197
0.5295182 -0.3205757 0.2446121
0.525631 -0.3204629 0.2561316
0.5473485 -0.320868 0.2637255
0.533318 -0.3211424 0.2750485
0.5520037 -0.3188456 0.2778654
0.5552348 -0.3186672 0.2874122
0.5672632 -0.3209448 0.3157141
0.5625052 -0.3199078 0.2991533
0.5763202 -0.3440291 0.3355476
0.5807555 -0.3460342 0.3333495
0.5799905 -0.3440291 0.3318059
0.585409 -0.3475209 0.3427391
0.578313 -0.3440291 0.346256
0.586017 -0.3440291 0.354134
0.5900627 -0.3465756 0.3521289
0.5930622 -0.3440291 0.3581808
0.5807555 -0.3427557 0.3333495
0.5823096 -0.3335494 0.3364854
0.5818722 -0.3335494 0.3444921
0.585409 -0.3249201 0.3427391
0.5697287 -0.3196944 0.3383228
0.5624173 -0.3197383 0.3334739
0.5802879 -0.3215735 0.3557088
0.5930316 -0.3230479 0.3389592
0.5900627 -0.3401877 0.3521289
0.5905448 -0.3335494 0.3513592
-0.4362041 -0.3644198 -1.676482
-0.4291818 -0.3676659 -1.680803
-0.4315091 -0.3649887 -1.685498
-0.4525328 -0.3574022 -1.704318
-0.4477966 -0.3548852 -1.718362
-0.4575808 -0.3545244 -1.714344
-0.4431429 -0.3576368 -1.708972
-0.4384892 -0.3623313 -1.699582
-0.4478791 -0.3594056 -1.694928
-0.4327646 -0.3641119 -1.690723
-0.4432255 -0.3596255 -1.685539
-0.1917307 -0.5745836 2.078634
-0.1908697 -0.5850633 2.080371
-0.1325106 -0.5265064 2.372105
-0.433918 -0.3699054 -1.666759
-0.4257116 -0.3757301 -1.671997
-0.1939853 -0.5902926 2.074085
-0.4292643 -0.3732609 -1.657369
-0.4198965 -0.3747987 -1.662068
-0.4152206 -0.3713185 -1.652633
-0.4246105 -0.3709441 -1.647979
-0.4105669 -0.3728205 -1.643244
-0.4199568 -0.3704444 -1.63859
-0.4057512 -0.3753269 -1.633934
-0.4153031 -0.3717793 -1.6292
-0.4012595 -0.3729206 -1.624464
-0.4106494 -0.3706449 -1.61981
-0.3966058 -0.3720633 -1.615074
-0.4059958 -0.3709389 -1.61042
-0.4013421 -0.3739709 -1.60103
-0.3916467 -0.3753452 -1.600185
-0.3966883 -0.3747658 -1.59164
-0.3920347 -0.3738517 -1.582251
-0.3835427 -0.3756493 -1.58646
-0.3872894 -0.3754038 -1.572676
-0.3827272 -0.3774244 -1.563471
-0.3780266 -0.3754922 -1.577497
-0.3724771 -0.3757454 -1.568552
-0.149313 -0.5247294 2.344517
-0.1496754 -0.5261967 2.330976
-0.1574145 -0.5267414 2.336669
-0.1620683 -0.527366 2.327279
-0.03494668 -0.4361615 -0.8713024
-0.03447604 -0.439551 -0.8444321
-0.02428073 -0.4375501 -0.8633995
-0.1573324 -0.5259541 2.313236
-0.1667219 -0.5280377 2.31789
-0.01358902 -0.4388795 -0.8458111
-0.01973796 -0.4413978 -0.8310673
-0.00963515 -0.4387975 -0.8360744
-0.1619862 -0.5267905 2.303846
-0.007415116 -0.4378943 -0.8285451
-0.01275516 -0.4427373 -0.8154936
-0.1713757 -0.5293041 2.3085
-0.004663408 -0.4396266 -0.8053229
-0.169618 -0.553624 2.307629
-0.1713757 -0.5525225 2.3085
-0.2033751 -0.5902253 2.078739
-0.001462638 -0.4381956 -0.7936738
-0.1687154 -0.532522 2.295099
-0.1746995 -0.5326647 2.301794
0.003530681 -0.4319922 -0.7841182
0.008184373 -0.4303566 -0.7747285
0.01967412 -0.4278671 -0.7687268
0.01283801 -0.4306842 -0.7653389
0.01880819 -0.4289204 -0.7566016
-0.1834878 -0.5326647 2.284061
-0.1759719 -0.532865 2.273205
-0.1853368 -0.5306677 2.280331
0.1565638 -0.3280786 -0.4762291
0.1618469 -0.32974 -0.5006375
0.149695 -0.3297694 -0.5083758
0.1804541 -0.3330745 -0.4507396
0.1758004 -0.3310951 -0.4601294
0.1621729 -0.3291503 -0.4611143
0.1726657 -0.3326166 -0.4365396
0.1847453 -0.3329926 -0.4404842
0.1762668 -0.3319336 -0.4258065
0.1920503 -0.3296285 -0.4204664
0.2027524 -0.329787 -0.4089987
0.1949131 -0.3296314 -0.4129632
0.2047615 -0.3279889 -0.3918885
0.2149844 -0.3269774 -0.3744693
0.2008003 -0.3274018 -0.3797324
0.2386646 -0.3283817 -0.2991776
0.2389135 -0.3275946 -0.3351324
0.2216493 -0.3285906 -0.3026699
0.4271008 -0.3504452 0.04691958
0.4248 -0.3440291 0.04227734
0.4170649 -0.3434439 0.0502702
0.4177108 -0.3487426 0.0515734
0.4223645 -0.3506998 0.06096303
0.4317545 -0.3485922 0.05630922
0.4364082 -0.3511251 0.06569898
0.4311535 -0.3528175 0.07817793
0.4410617 -0.3518218 0.07508874
0.4423941 -0.3510917 0.08710051
0.4271008 -0.3364486 0.04691958
0.4329766 -0.3233131 0.04249549
0.4126217 -0.3229188 0.04460859
0.4177108 -0.3243734 0.0515734
-0.1758967 -0.5326525 2.263906
-0.172381 -0.5431443 2.297302
-0.1716857 -0.5431443 2.308422
-0.180683 -0.5386423 2.289721
-0.1796324 -0.5431443 2.291841
0.4262928 -0.3225349 0.03562355
0.408919 -0.3227491 0.03184307
0.4317545 -0.3405279 0.05630922
0.4223645 -0.3344799 0.06096303
0.4364082 -0.340185 0.06569898
0.4316915 -0.3348054 0.07943761
0.4349729 -0.3229087 0.05906224
-0.2039629 -0.5931599 2.068094
0.4410617 -0.3357676 0.07508874
0.434909 -0.3336455 0.08792377
0.4450283 -0.333563 0.08522189
-0.1712935 -0.5349685 2.285067
0.432968 -0.3230894 0.09121287
0.4452306 -0.3231478 0.08451855
-0.1760294 -0.5520862 2.29911
0.4369286 -0.3219277 0.07556033
0.4255309 -0.3230068 0.07008624
0.4449898 -0.3429855 0.1062772
0.4550229 -0.3454038 0.1032581
0.4472646 -0.3481577 0.09476388
0.4573724 -0.3440291 0.1079986
0.4502866 -0.3392209 0.1173017
0.4596766 -0.3397051 0.1126479
0.4618986 -0.3335494 0.1171312
0.4546515 -0.3336423 0.1269095
0.4620761 -0.3335494 0.1231551
0.4643304 -0.3298248 0.1220379
0.4653707 -0.3317971 0.1449146
0.4736378 -0.3362471 0.1408173
0.4725901 -0.3335494 0.1387036
0.4689841 -0.3332886 0.1314276
0.4595941 -0.3242279 0.1360815
0.47499 -0.3335494 0.1435457
0.4689016 -0.3308927 0.1548611
0.4782915 -0.3248101 0.1502073
0.473341 -0.3346252 0.1624027
0.4785352 -0.3335494 0.1617827
-0.4626841 -0.3552473 -1.701201
-0.4572689 -0.3601969 -1.690274
-0.4671218 -0.3493143 -1.70914
-0.4526153 -0.360242 -1.680885
-0.4477722 -0.3613836 -1.671481
-0.2691035 -0.5379459 2.111314
-0.2550604 -0.5370609 2.11605
-0.4386541 -0.3718771 -1.652715
-0.4340003 -0.3703028 -1.643326
-0.4293466 -0.3680912 -1.633936
-0.2597139 -0.5409819 2.106661
-0.4246929 -0.3702668 -1.624546
-0.4200392 -0.3740224 -1.615156
-0.2643678 -0.5398446 2.097271
-0.4163886 -0.3753287 -1.604649
-0.2737573 -0.5407485 2.101924
-0.4093542 -0.3759738 -1.597059
-0.2784111 -0.54099 2.092535
-0.4066241 -0.3753864 -1.587056
-0.2689184 -0.5389307 2.088147
-0.4014244 -0.3728799 -1.577597
-0.3965308 -0.3753123 -1.567723
-0.3921169 -0.3773736 -1.558818
-0.2811427 -0.540454 2.077959
0.02193058 -0.4173874 -0.7347565
0.02246153 -0.428431 -0.7228134
0.02256042 -0.4175011 -0.7180178
0.01889116 -0.429132 -0.7332501
-0.27825 -0.5401154 2.068674
0.01673228 -0.4066266 -0.7393351
-0.2923722 -0.5397493 2.064365
-0.2878855 -0.5432452 2.051951
-0.2056352 -0.5956923 2.053125
-0.2126827 -0.5943025 2.059959
-0.2989395 -0.5522766 2.266456
0.004721224 -0.3440291 -0.7831829
0.004485548 -0.3545088 -0.7728953
0.004961669 -0.3440291 -0.7731314
0.005869627 -0.3646163 -0.7802789
0.004327178 -0.3752116 -0.7749171
0.005151868 -0.3860434 -0.7553537
0.005453587 -0.3754203 -0.7553074
0.00403291 -0.3866516 -0.774317
-0.2980133 -0.5413545 2.054345
0.006819069 -0.365381 -0.7600634
0.0049178 -0.3545088 -0.7614133
0.007112384 -0.3551927 -0.7519116
0.006066322 -0.3437363 -0.7588463
-0.3013646 -0.5431759 2.034256
0.008184373 -0.3369347 -0.7747285
0.01299793 -0.3336234 -0.7650163
0.01580656 -0.3327627 -0.7551138
-0.2187414 -0.5942987 2.047618
-0.2917398 -0.5443494 2.029182
0.01379615 -0.3337963 -0.740778
-0.3015952 -0.5431458 2.022136
0.02214551 -0.3308443 -0.7465591
-0.3109869 -0.5477823 2.026806
-0.3193722 -0.5422434 2.009784
-0.3080122 -0.5425154 2.013635
-0.3110048 -0.540922 2.001871
0.0267992 -0.3307382 -0.7371695
0.01572585 -0.332649 -0.7316813
0.02206314 -0.3298389 -0.7231259
0.04342908 -0.328617 -0.7243953
0.0361529 -0.3293372 -0.7182949
0.02671683 -0.3300248 -0.7137363
0.03137064 -0.3280925 -0.7043462
0.04924941 -0.3256053 -0.6925752
0.4696289 -0.3345544 0.1799281
0.4626952 -0.3337245 0.167176
0.4782089 -0.3357002 0.1736406
0.4802144 -0.3335494 0.177687
0.4734728 -0.3272444 0.1876839
0.4828626 -0.3287321 0.1830304
0.4773659 -0.3226842 0.1957388
0.4864215 -0.3232285 0.1929629
-0.3156407 -0.5455784 2.017416
-0.3249481 -0.5411319 1.998637
0.495229 -0.3225181 0.2123295
0.5089111 -0.3204487 0.2516036
0.5107025 -0.3213109 0.2628022
0.516158 -0.3227421 0.2731355
0.5308952 -0.3205742 0.3000939
0.5417492 -0.3199802 0.3293967
0.5474082 -0.3204139 0.3395045
0.5665866 -0.3211697 0.3523779
0.5572435 -0.3230903 0.356632
-0.3202124 -0.5384313 1.984593
-0.3296019 -0.5393547 1.989247
-0.3258171 -0.5387409 1.975346
0.5601529 -0.3245997 0.3762636
0.5730916 -0.322814 0.3868077
0.5836761 -0.3228955 0.3674052
0.5882801 -0.3230982 0.3828865
-0.3279999 -0.5413182 1.963933
-0.342646 -0.5392027 1.972954
-0.3536993 -0.539066 1.953401
-0.4705507 -0.3570467 -1.695255
-0.4608477 -0.3639716 -1.674806
-0.4532478 -0.3649887 -1.668875
-0.4539062 -0.3749546 -1.655539
-0.4473344 -0.3755806 -1.647085
-0.22199 -0.5607105 2.041179
-0.2126176 -0.561319 2.036367
-0.44339 -0.3721982 -1.638672
-0.4387363 -0.3697211 -1.629282
-0.4340826 -0.3717145 -1.619892
-0.4301407 -0.3754072 -1.609383
-0.4247752 -0.3760878 -1.601113
-0.4201216 -0.378899 -1.591723
-0.2071236 -0.5326632 2.184666
-0.199051 -0.5343336 2.181861
-0.2037046 -0.5375992 2.172472
-0.2130944 -0.5350031 2.177125
-0.2083584 -0.5371348 2.163082
-0.2177482 -0.5379819 2.167736
-0.4154677 -0.3790897 -1.582333
-0.40944 -0.3759548 -1.573479
-0.2224019 -0.5373763 2.158345
-0.2130122 -0.5352691 2.153692
-0.4011305 -0.3755717 -1.552505
-0.2215576 -0.535576 2.142142
-0.4079033 -0.3752208 -1.56269
-0.226815 -0.5374364 2.149723
0.0217343 -0.4278671 -0.7112668
0.01563221 -0.4061978 -0.7195365
-0.2188178 -0.553624 2.156569
-0.2131749 -0.5537655 2.165437
-0.2224019 -0.5432407 2.158345
0.02147502 -0.4101912 -0.7003379
-0.2270353 -0.5638927 2.030999
0.02184075 -0.4287373 -0.7072217
0.02501965 -0.417785 -0.6830311
-0.2237672 -0.5534509 2.155441
0.008993447 -0.3965154 -0.7187555
-0.2317093 -0.5360109 2.139566
-0.2269734 -0.5338265 2.125522
-0.2363631 -0.5344983 2.130176
0.006649375 -0.38605 -0.7378654
0.007958472 -0.3754684 -0.7395277
0.00780338 -0.3753094 -0.7279239
0.01065505 -0.3649887 -0.7408643
0.1359115 -0.02833813 1.653468
0.1308197 -0.01929402 1.644094
0.1361398 -0.0296365 1.641457
0.01046723 -0.3650435 -0.7289045
-0.2318999 -0.5345982 2.115516
-0.2931136 -0.5499703 2.275265
-0.2410166 -0.5331634 2.120787
0.008252859 -0.3545088 -0.7396736
-0.2456704 -0.5353025 2.111397
0.007709563 -0.3547961 -0.7279305
0.00754267 -0.343824 -0.737334
-0.2176222 -0.5641545 2.167866
-0.2144919 -0.553624 2.174306
-0.2262523 -0.564104 2.019899
-0.2219077 -0.5628225 2.017746
-0.2225444 -0.5639771 2.158614
0.01401246 -0.3348984 -0.719136
0.1342827 -0.04011619 1.642377
0.1369354 -0.04011619 1.654088
0.01699352 -0.3334789 -0.7092183
0.02198088 -0.3296584 -0.6996925
0.02663457 -0.3286623 -0.6903028
-0.2492752 -0.4055365 -1.210832
-0.2358667 -0.403529 -1.241656
-0.2559221 -0.4043849 -1.229172
0.1313996 -0.05059612 1.642824
0.136943 -0.05059612 1.654252
-0.2362291 -0.4051009 -1.200776
-0.2229556 -0.4048965 -1.212134
-0.1938099 -0.4129834 -1.122872
-0.1979193 -0.4101369 -1.143918
-0.2050421 -0.4122516 -1.129323
-0.04780805 -0.4427308 -0.8165131
-0.04732352 -0.4417558 -0.8371737
-0.05679256 -0.4434364 -0.8353579
-0.03515548 -0.4425108 -0.8157213
-0.01548511 -0.4466054 -0.774339
-0.01990259 -0.4459208 -0.7842009
-0.03549415 -0.4449462 -0.7844298
0.1277548 -0.0296365 1.637683
0.1294066 -0.04011619 1.641016
-0.01068789 -0.4490021 -0.7442493
-0.006867528 -0.4463279 -0.7574236
-0.001287758 -0.4438008 -0.7466416
-0.006047547 -0.4488238 -0.7326117
0.006890476 -0.4348004 -0.7290103
0.003351629 -0.4395058 -0.7238061
-0.002625108 -0.4475926 -0.7204053
0.3544875 -0.2929647 -2.618829
0.368953 -0.2909704 -2.617581
0.3728261 -0.2947719 -2.617862
-0.171746 -0.5561024 1.080579
0.1309133 -0.06029046 1.644285
0.1358356 -0.06163025 1.653535
-0.2451375 -0.5393432 2.099399
0.01267338 -0.4328099 -0.7184722
0.008064806 -0.4381049 -0.7000105
0.02381349 -0.4278671 -0.6889045
0.02134991 -0.4324436 -0.6776321
0.02478278 -0.4278671 -0.6776891
0.02640754 -0.4275101 -0.6575773
0.01818609 -0.4066005 -0.6845026
0.01929671 -0.4069077 -0.6983624
0.008951664 -0.3944594 -0.7037594
0.005943835 -0.3858309 -0.7105155
0.01124555 -0.3983219 -0.6943719
-0.2552773 -0.5399159 2.092904
-0.2431733 -0.5415416 2.078975
-0.2596316 -0.5392274 2.083227
-0.2640457 -0.5397329 2.073365
0.02188349 -0.4101732 -0.6763644
-0.2598047 -0.5395998 2.057535
-0.2787546 -0.5431185 2.047927
-0.2709454 -0.5423405 2.039221
-0.2829001 -0.5436448 2.036278
-0.273007 -0.5443227 2.031736
-0.2602084 -0.5374843 2.247261
-0.279041 -0.5438181 2.020465
-0.2919253 -0.5426228 2.018214
-0.2338412 -0.564104 2.011964
-0.2272378 -0.5636733 2.006991
-0.5202392 -0.5771536 1.557399
-0.5141345 -0.5751683 1.56983
-0.2312974 -0.5690178 2.0224
0.126908 -0.3282072 -0.4596747
0.1211273 -0.3292758 -0.4752902
0.1142747 -0.3275093 -0.4587022
0.1520991 -0.3304592 -0.4110301
0.1394544 -0.3289211 -0.4289135
0.1451663 -0.3302094 -0.4040034
0.1550897 -0.3296714 -0.3847882
0.1615098 -0.3303534 -0.3945657
0.1684875 -0.3290362 -0.384439
0.160882 -0.3282797 -0.3704424
0.1892042 -0.3297201 -0.315555
0.185487 -0.3293369 -0.3012043
0.2037101 -0.330009 -0.3106043
0.2073663 -0.3286321 -0.3002052
0.2034732 -0.3283895 -0.2870306
0.2060682 -0.32866 -0.2757269
0.2251029 -0.3304951 -0.2855468
0.2304184 -0.3282425 -0.2743503
0.2267381 -0.3270388 -0.2609138
0.6603867 -0.3232237 0.6626344
0.6600094 -0.3230091 0.6507489
0.6592917 -0.3248805 0.6570089
-0.5108495 -0.5769807 1.552745
0.6538587 -0.3228472 0.6490939
0.6593741 -0.3213316 0.6335757
0.6498741 -0.3230488 0.6382173
0.6597667 -0.3215538 0.6431007
-0.5155032 -0.5768148 1.543355
-0.5291175 -0.5780567 1.551213
-0.5308063 -0.5782977 1.540119
-0.5201569 -0.5756999 1.533966
-0.5349014 -0.5792111 1.528755
-0.5159618 -0.5768527 1.519839
-0.5384498 -0.5792122 1.520251
-0.2101672 -0.4193501 -1.070364
-0.2032846 -0.4161576 -1.083521
-0.214905 -0.4170691 -1.083259
-0.1918601 -0.4187045 -1.066091
-0.1996471 -0.4198747 -1.051507
-0.1873554 -0.4206581 -1.040563
-0.1676549 -0.4242241 -1.014194
-0.1961851 -0.4224824 -1.028643
-0.1945766 -0.4252793 -1.00378
-0.5461538 -0.5789326 1.500301
-0.5466354 -0.5797468 1.484027
-0.5602314 -0.5812453 1.484723
-0.5548056 -0.5806468 1.475474
0.3842479 -0.287439 -2.610838
0.1339173 -0.09251511 1.650117
0.1330644 -0.08203518 1.648396
0.130847 -0.08141744 1.643799
0.133822 -0.09251511 1.642606
-0.5573865 -0.5802015 1.458847
-0.5667763 -0.5787209 1.463501
-0.5708854 -0.5786601 1.453902
-0.1807355 -0.426991 -0.9950554
-0.1594218 -0.4270566 -0.9910963
-0.1606894 -0.4271913 -0.9780521
-0.1523327 -0.4295752 -0.9425809
-0.1452736 -0.4270259 -0.9777994
0.1342449 -0.1029948 1.642396
0.1334497 -0.1029948 1.649173
-0.1295182 -0.4342014 -0.9068911
-0.1253433 -0.4299588 -0.9305458
-0.1359147 -0.4302605 -0.9286485
-0.1159637 -0.433821 -0.9047556
-0.125238 -0.435213 -0.897367
-0.1163297 -0.434621 -0.8850691
0.08385974 -0.3230953 -0.457787
0.08039939 -0.3231996 -0.4458946
0.09717405 -0.3253838 -0.455846
0.08426011 -0.3233879 -0.4745104
0.07373822 -0.3222311 -0.4762982
0.1002423 -0.3268142 -0.4358957
0.1161985 -0.3286629 -0.3944848
0.1144239 -0.3285796 -0.3828191
0.1355323 -0.3288199 -0.3890671
0.1327433 -0.3279757 -0.3586109
0.1392828 -0.3286687 -0.3532842
0.1445229 -0.3290794 -0.3379258
0.152385 -0.3283352 -0.346853
0.1546285 -0.3286485 -0.3228239
0.1599818 -0.3294245 -0.3134669
0.1503767 -0.328461 -0.3023988
0.1774931 -0.3306021 -0.309281
0.1803863 -0.3283218 -0.28896
-0.5840336 -0.5812896 1.406761
-0.5840511 -0.5819731 1.385801
-0.5969166 -0.5834728 1.399452
-0.5999666 -0.584147 1.378857
-0.5812031 -0.5822985 1.3656
-0.2349308 -0.5745836 2.013962
-0.1669776 -0.5297678 2.22483
-0.1607916 -0.5326211 2.233148
-0.1531227 -0.5337734 2.227332
-0.157003 -0.5305175 2.219503
-0.1710464 -0.5295538 2.214767
-0.1616378 -0.5296125 2.210194
-0.158768 -0.5431443 2.239541
-0.1495318 -0.5431443 2.234578
-0.5296912 -0.3596669 -1.701744
-0.5228326 -0.3619372 -1.704565
-0.5286186 -0.3599984 -1.715524
0.327078 -0.3226404 0.0788914
0.3215131 -0.321472 0.04148328
0.3088623 -0.3228245 0.07010174
0.132916 -0.1134745 1.644792
0.339427 -0.3219764 0.1091335
0.3409601 -0.3235268 0.08486187
0.3492069 -0.321839 0.1022352
-0.264862 -0.5373236 2.237871
0.3580369 -0.3221005 0.123868
-0.1567827 -0.5531687 2.242786
-0.1528252 -0.5414548 2.251532
-0.2123012 -0.595667 2.034744
0.3801527 -0.2882208 -2.596554
0.3895425 -0.2879363 -2.601208
0.3941274 -0.2893579 -2.591805
0.126256 -0.08756077 1.634659
0.1304443 -0.09251511 1.632583
0.119275 -0.09261656 1.626235
0.3812191 -0.3229532 0.1861974
0.3891295 -0.3253185 0.1827008
0.3852215 -0.3225974 0.1748155
0.3909361 -0.3227832 0.1902879
0.378664 -0.320483 0.1644788
-0.147671 -0.553674 2.238111
-0.1671986 -0.5323781 2.198931
-0.1760575 -0.532388 2.204656
0.4320989 -0.3194352 0.2306582
0.4004689 -0.3206657 0.2505734
0.4201667 -0.3225173 0.2522933
0.4253964 -0.3235196 0.2589265
-0.169768 -0.5330728 2.190741
-0.1803538 -0.5350434 2.195987
0.4292243 -0.3204901 0.2751218
0.4351537 -0.3231506 0.2635963
-0.3622146 -0.3964702 -1.284654
-0.3508925 -0.3984786 -1.286843
-0.3570239 -0.3969146 -1.297122
-0.3549539 -0.3981655 -1.273021
-0.3723279 -0.3958637 -1.306062
-0.3369315 -0.4017309 -1.258674
-0.3341475 -0.3992106 -1.271327
-0.3463212 -0.4021138 -1.25402
-0.1850075 -0.5348023 2.186597
-0.3287572 -0.4068232 -1.238043
-0.3315349 -0.4069647 -1.249779
-0.338335 -0.4064099 -1.246996
-0.1664485 -0.5345887 2.177739
-0.1790898 -0.5431443 2.174938
-0.3323601 -0.4042224 -1.225851
-0.3229703 -0.4042579 -1.230504
-0.1885577 -0.5425963 2.176282
-0.3272908 -0.4042977 -1.216283
-0.3230526 -0.40421 -1.207071
-0.3136628 -0.4055833 -1.211725
-0.3183989 -0.4019805 -1.197681
-0.3085361 -0.404905 -1.202291
-0.3055916 -0.3996698 -1.185514
-0.2982865 -0.3983126 -1.173064
-0.3130443 -0.398438 -1.1773
-0.2730152 -0.4049914 -1.107488
-0.2731572 -0.4018261 -1.130976
-0.2877602 -0.4010605 -1.143455
-0.2651083 -0.4041897 -1.113475
-0.2266439 -0.5918142 2.031789
-0.2652927 -0.4064424 -1.091215
-0.2498888 -0.4118019 -1.085334
-0.258099 -0.4068544 -1.103129
-0.1801966 -0.5519497 2.172294
0.01321328 -0.3754606 -0.5411406
0.0136652 -0.3860248 -0.545664
0.01518989 -0.386284 -0.5190918
0.01469833 -0.3752548 -0.5199986
0.01678985 -0.3645472 -0.5340737
0.01615685 -0.364215 -0.5456313
0.0222162 -0.3663818 -0.5126696
-0.1881248 -0.5431443 2.156708
-0.189579 -0.5390843 2.153774
-0.1974326 -0.5431443 2.161527
-0.1989687 -0.5390335 2.158428
0.01879615 -0.354213 -0.5402099
0.02305162 -0.3545088 -0.5247798
0.0180288 -0.3440291 -0.5437603
0.02047789 -0.3437427 -0.5292426
0.02469391 -0.3545088 -0.5138975
0.02399415 -0.3648524 -0.5047563
0.02422571 -0.3545088 -0.5038875
0.02191412 -0.3440291 -0.5118313
-0.1944931 -0.5536903 2.167647
0.01989096 -0.3329894 -0.5378381
-0.2172541 -0.593942 2.027136
0.02052832 -0.3335494 -0.5235292
-0.1878576 -0.553624 2.157248
0.02605796 -0.3277384 -0.5262697
0.02110237 -0.3334966 -0.5126232
-0.1852387 -0.5370511 2.140613
0.03071165 -0.3265208 -0.5168799
0.02597553 -0.3275245 -0.5028365
0.03562707 -0.3261937 -0.5035697
0.03062934 -0.3252531 -0.4934466
0.03528303 -0.3241748 -0.4840568
0.04567879 -0.3248769 -0.4882569
0.04196811 -0.3248972 -0.471131
0.05570805 -0.3235073 -0.4707874
0.04943854 -0.3241482 -0.4556483
-0.2036225 -0.5343908 2.149038
-0.2084695 -0.5328778 2.138762
0.07413769 -0.3215715 -0.4297485
0.06737298 -0.3218672 -0.4403188
0.06320518 -0.3218232 -0.4277182
0.07460469 -0.3226291 -0.3853719
0.09120989 -0.3253082 -0.3948125
0.07700694 -0.3216066 -0.3996176
0.06927949 -0.3215088 -0.4171879
0.08351064 -0.3230076 -0.4131353
0.6634449 -0.3285445 0.7589726
0.6627953 -0.326995 0.7385113
0.6486971 -0.3273835 0.7558861
0.6547704 -0.3285941 0.7788873
0.6644628 -0.326901 0.7910375
-0.2325324 -0.5856026 2.021384
-0.2259609 -0.5842899 2.009568
-0.1564615 -0.4397717 -0.8324888
-0.1434433 -0.4413195 -0.8167384
-0.1294022 -0.441067 -0.8178334
-0.1445948 -0.4363301 -0.8493767
-0.1458755 -0.4433693 -0.7944202
-0.1213953 -0.4426178 -0.7983875
-0.1216571 -0.4448476 -0.7770989
-0.1028142 -0.4485874 -0.7578754
-0.09882623 -0.448694 -0.7682736
-0.2128474 -0.5378393 2.106825
-0.2229049 -0.5404309 2.089519
-0.2154958 -0.5344346 2.1192
-0.4349064 -0.3897804 -1.385559
-0.4287198 -0.3861388 -1.400322
-0.4395602 -0.3873566 -1.394949
-0.4240231 -0.3861728 -1.389674
-0.4302527 -0.3920423 -1.376169
-0.4176821 -0.3884935 -1.374758
-0.425599 -0.3912812 -1.36678
-0.4114131 -0.3892114 -1.362163
-0.4209452 -0.3911203 -1.35739
-0.226891 -0.5379213 2.102089
-0.4965364 -0.3854324 -1.505885
-0.4813612 -0.3795229 -1.502891
-0.4905407 -0.3767166 -1.520934
-0.4901302 -0.3875334 -1.498545
-0.4859888 -0.3860939 -1.488841
-0.4767075 -0.3829502 -1.493501
-0.2219077 -0.5901548 2.017746
-0.4814436 -0.3811811 -1.479457
-0.4720539 -0.3818811 -1.484111
-0.4670396 -0.3827225 -1.474413
-0.4767899 -0.3805014 -1.470068
-0.4707667 -0.3865963 -1.462109
-0.4580927 -0.3830806 -1.455941
-0.4660507 -0.3875036 -1.451998
-0.4542192 -0.386539 -1.448126
-0.4441316 -0.3848938 -1.427772
-0.4502656 -0.3858138 -1.43648
-0.45202 -0.3867605 -1.423863
-0.4404105 -0.3864505 -1.420264
-0.4082825 -0.3905549 -1.350796
-0.3949242 -0.3934563 -1.328636
-0.402336 -0.391362 -1.343298
-0.4075446 -0.3947505 -1.329202
-0.403613 -0.3951162 -1.320774
-0.3969665 -0.3944626 -1.306495
-0.3876898 -0.3940014 -1.312788
-0.375623 -0.3969213 -1.289147
-0.1849251 -0.5589675 2.163164
-0.363529 -0.4022294 -1.242312
-0.3603648 -0.3996855 -1.258756
-0.3716481 -0.3990624 -1.25998
-0.355114 -0.4008019 -1.248215
-0.3462668 -0.4051188 -1.229941
-0.3529246 -0.4055325 -1.22349
-0.3370962 -0.4060796 -1.211807
-0.3508944 -0.404484 -1.205804
-0.06013638 -0.4582115 -0.6365879
-0.06252736 -0.4579936 -0.657809
-0.07627583 -0.4550526 -0.6666305
0.1142894 -0.06635344 1.593816
0.1214521 -0.08007526 1.590792
0.1093589 -0.0715555 1.597874
-0.01258963 -0.4638221 -0.5760992
-0.01085901 -0.4619201 -0.6013024
-0.03737158 -0.4619305 -0.5992241
-0.02973723 -0.4641173 -0.5581616
-0.02586603 -0.4666036 -0.5436585
-0.00604409 -0.4668492 -0.5449272
-0.02529585 -0.4679133 -0.5264075
-0.006765306 -0.4684147 -0.5216986
0.002624452 -0.4665822 -0.5263523
0.007278264 -0.4650265 -0.5169623
-0.001874983 -0.4692574 -0.5121728
0.0132643 -0.4594696 -0.5065942
0.005371392 -0.4688603 -0.4926249
0.01340657 -0.4603143 -0.4872704
0.1131844 -0.08203518 1.594353
0.1104591 -0.08203518 1.605238
0.117486 -0.08881259 1.591848
0.0209102 -0.4509609 -0.4676927
0.02129775 -0.4490892 -0.4795989
0.1125519 -0.09158564 1.606568
-0.1619182 -0.5534766 1.07715
-0.1670924 -0.5557956 1.089969
0.1334444 -0.1029948 1.631096
0.03220975 -0.4391444 -0.4679414
0.02651781 -0.4489099 -0.4547939
0.1223919 -0.1013036 1.624878
-0.2118937 -0.5745302 2.104333
0.01772028 -0.3860147 -0.4670928
0.01694036 -0.3862258 -0.4953924
0.02066988 -0.3961326 -0.4835424
-0.2315446 -0.5417958 2.0927
-0.2268086 -0.5397853 2.078656
0.3515704 -0.3247522 0.2013156
0.3635011 -0.3230846 0.1956754
0.346977 -0.323108 0.191492
-0.2361984 -0.542847 2.08331
0.3601534 -0.3229461 0.2130281
0.3673737 -0.323191 0.2071322
-0.2314624 -0.5388511 2.069266
0.3374314 -0.3199345 0.1740741
0.3523539 -0.3210977 0.1791441
0.3744475 -0.3201216 0.2285935
0.3862195 -0.320535 0.2615426
0.398175 -0.3205507 0.2818197
0.4009038 -0.3215361 0.2705127
0.3929193 -0.3202699 0.2974513
0.4136516 -0.3184335 0.2973731
0.4027611 -0.3186694 0.3046033
0.4216293 -0.3185647 0.3192025
0.4048209 -0.3192151 0.3264334
0.4329801 -0.3189721 0.359357
0.4290191 -0.3211437 0.3728039
0.445044 -0.3228176 0.3663181
-0.3418323 -0.403381 -1.197763
-0.3579405 -0.3993087 -1.188727
-0.340085 -0.3995067 -1.184933
-0.3006197 -0.407946 -1.090111
-0.2963662 -0.404875 -1.120746
-0.3082178 -0.4060315 -1.111734
-0.2850396 -0.4066114 -1.096333
-0.2934803 -0.4103032 -1.069356
-0.2726164 -0.4096957 -1.059386
-0.2889431 -0.4115403 -1.057478
-0.2645867 -0.4119226 -1.041234
-0.2722122 -0.4123665 -1.035485
-0.5227621 -0.5783023 1.504514
-0.5171308 -0.5765957 1.493008
-0.529382 -0.5779003 1.491753
-0.2583734 -0.4158002 -1.023342
-0.2669265 -0.414166 -1.021951
-0.5246459 -0.5754279 1.477709
-0.0511322 -0.4608188 -0.6106324
-0.06782788 -0.4598954 -0.6136346
-0.5340357 -0.5766948 1.482363
-0.5292997 -0.5765375 1.468319
-0.03823119 -0.4635999 -0.564648
