0.6814306 -0.565408 0.6473384
-0.5793748 -0.07926816 0.0552685
-0.554069 -0.1059861 0.05179149
0.6770725 -0.5824237 0.6303227
0.6710643 -0.5829678 0.6487852
0.6879731 -0.108119 0.07112221
0.6868552 -0.09167415 0.05244026
0.68832 -0.1113226 0.05273026
0.6883783 -0.08897054 0.06880713
0.6699746 -0.5906378 0.6303227
0.6865878 -0.07735819 0.07123679
0.6856785 -0.07142121 0.04815298
0.652123 -0.5989439 0.6306915
0.6854093 -0.0704422 0.06835902
0.6852494 -0.05013251 0.06309424
0.6852824 0.02118409 0.04290903
0.6862237 -0.005072951 0.06147623
0.6855846 0.0252561 0.06910272
0.6862976 0.04726511 0.0687958
0.6858323 0.05457962 0.05693062
0.6858426 0.06417012 0.06880713
0.6870456 0.0806812 0.06583714
0.6872829 0.1035646 0.05891588
0.6359434 -0.6009803 0.6303227
0.6359434 -0.599076 0.6454229
0.686536 0.118232 0.06862205
0.6879429 0.1133875 0.0495491
0.6877051 0.1320786 0.0520421
0.4741198 -0.5995338 0.09502921
0.438875 -0.5992752 0.09481409
0.4468968 -0.6053555 0.102832
0.4795042 -0.5828468 0.08700937
0.4395298 -0.5826669 0.08707626
0.4998184 -0.6041455 0.1028384
0.5063062 -0.5996138 0.09599338
0.4998184 -0.5824237 0.08641411
0.5381111 -0.6043619 0.1028891
0.5338495 -0.5994393 0.09563495
0.5203212 -0.5833361 0.08547071
0.5593877 -0.5994514 0.09335311
0.5508652 -0.5829232 0.08572699
0.5855435 -0.5843351 0.08542998
0.4475031 -0.5654359 0.08667567
0.4656017 -0.5654765 0.0872245
0.4673603 -0.547682 0.0877849
0.4348752 -0.5473816 0.08890916
0.4990376 -0.5652171 0.08558239
0.5003652 -0.5186762 0.08823574
0.4339342 -0.5303191 0.0910027
0.4543089 -0.5166539 0.09116586
0.4175318 -0.5148652 0.09267597
0.5240026 -0.5350493 0.08656028
0.6147022 -0.5984462 0.6437414
0.617061 -0.6001256 0.6300204
0.5993752 -0.5979838 0.6272333
0.5267488 -0.4973799 0.08529235
-0.5671208 -0.1826842 -0.308149
-0.5685214 -0.1740487 -0.3225522
0.5510639 -0.5147681 0.08578034
0.5598339 -0.5396872 0.08600888
0.5678808 -0.5143611 0.0879233
0.5678808 -0.5313767 0.08679928
0.6007015 -0.5994123 0.09333287
0.6157864 -0.6038443 0.1030847
0.6189277 -0.5994393 0.09537269
0.6529468 -0.5992488 0.09077258
0.652312 -0.6045878 0.1018689
0.6185045 -0.5848138 0.08519182
0.670586 -0.6004317 0.101102
0.6529589 -0.5916493 0.08582272
0.6701558 -0.5846503 0.08570978
0.5848966 -0.5956879 0.6473384
0.5848965 -0.5957515 0.6303227
0.6807954 -0.5824237 0.1028384
0.5837259 -0.5345324 0.0866714
0.5637989 -0.5960574 0.6311531
0.5848965 -0.5143611 0.08995475
0.5975882 -0.5481081 0.08448136
0.6076666 -0.5134913 0.08897907
0.6314849 -0.5392936 0.0856465
0.6359434 -0.5143611 0.08693649
0.5374904 -0.5974802 0.6175854
0.5473962 -0.595162 0.6473037
0.6699746 -0.5483923 0.08919287
0.6511357 -0.5577483 0.08563961
0.6699746 -0.5681148 0.08694106
0.6829116 -0.565408 0.1028384
0.6830706 -0.5483923 0.1028384
0.5095454 -0.5942082 0.6608973
0.6529589 -0.5313767 0.08704425
0.5075637 -0.5971624 0.6117334
0.6699746 -0.5313767 0.09182024
0.6529589 -0.5143611 0.08670689
0.6699746 -0.5143611 0.09241843
0.6811298 -0.5153487 0.1030062
-0.2488691 -0.5824237 0.1133186
-0.2217998 -0.5829705 0.1087095
-0.2309418 -0.5654534 0.1143124
-0.2488691 -0.565408 0.1139619
-0.2482085 -0.5356244 0.1175579
-0.1922614 -0.5816097 0.1060103
-0.1762156 -0.5829015 0.1050177
-0.1711246 -0.5668843 0.1070357
-0.1808067 -0.5483923 0.1124955
-0.2314265 -0.5190824 0.1207054
-0.2148379 -0.5289783 0.11958
-0.2497783 -0.5150766 0.1196739
-0.1856155 -0.5294111 0.1168785
0.4752953 -0.5948484 0.6603042
0.4698312 -0.5956066 0.6316339
-0.2101054 -0.5150865 0.1202668
-0.1808067 -0.5143611 0.1182117
-0.1445078 -0.5823739 0.1036534
-0.1354553 -0.5602654 0.1067786
-0.1032792 -0.5806608 0.1026977
-0.126449 -0.5478376 0.1086665
-0.1625344 -0.52618 0.1155162
-0.1120617 -0.5161539 0.1135811
-0.1367268 -0.5149767 0.1151118
-0.3849574 -0.4942086 0.1212677
-0.3076299 -0.4951872 0.1207319
-0.3791589 -0.4796218 0.1043503
-0.2949293 -0.4805365 0.1025261
0.4463986 -0.5955812 0.6335512
-0.2747272 -0.4966595 0.120053
-0.2331347 -0.4806923 0.101065
-0.2488691 -0.4980829 0.1198655
-0.2315024 -0.4973195 0.119875
-0.2148379 -0.5002614 0.1194391
-0.2138821 -0.4809889 0.09962983
-0.1968162 -0.497483 0.1180765
-0.1957585 -0.4825923 0.1030525
-0.163791 -0.4973454 0.1164515
-0.1376635 -0.4974546 0.1143519
-0.1477073 -0.4834576 0.10269
-0.103949 -0.4971608 0.1146475
-0.08716519 -0.4824035 0.1028099
0.6866188 -0.5635464 0.119305
0.6836029 -0.582741 0.1207107
0.6871275 -0.5483923 0.1188131
0.6867858 -0.5094053 0.1221378
0.6822791 -0.4803299 0.1028384
0.6855035 -0.4695624 0.1176266
0.6834643 -0.4633143 0.1028384
0.6852878 -0.4351749 0.09677097
0.7002221 -0.2369518 0.5904118
0.7004691 -0.2284831 0.6136627
0.6998991 -0.2211002 0.5813781
-0.5211192 -0.4973454 0.1283346
-0.5041035 -0.5143611 0.1263608
-0.5046006 -0.4971459 0.1259665
-0.5211192 -0.5143611 0.1277407
-0.4738662 -0.5141671 0.126246
-0.521326 -0.4805906 0.1197246
-0.5041035 -0.4859681 0.119854
-0.4554168 -0.4873172 0.119815
-0.4570363 -0.4972959 0.125394
-0.4458646 -0.5137022 0.1250246
-0.4356906 -0.4975171 0.1239069
-0.436041 -0.4891871 0.119854
-0.4028639 -0.4904085 0.1197905
-0.3855765 -0.5144448 0.123333
-0.4020098 -0.4973454 0.122976
-0.5498122 -0.3272606 -0.2846667
-0.5552156 -0.3227878 -0.3140843
-0.5551183 -0.3222965 -0.2614437
-0.3508004 -0.6156899 0.1229361
-0.3849941 -0.6160653 0.1228177
-0.3790352 -0.6173806 0.1352101
-0.3155416 -0.6171837 0.1360653
-0.3183487 -0.6160434 0.1227752
-0.3339473 -0.6151264 0.119854
-0.2797015 -0.6164681 0.1201417
-0.2652757 -0.618875 0.1363256
0.6985699 -0.2939053 0.580918
0.6983923 -0.3131525 0.5642204
0.6987284 -0.314143 0.5949123
-0.2561052 -0.6169695 0.1194821
0.6962238 -0.375543 0.5838838
0.6971722 -0.349708 0.5959918
0.6976896 -0.3612205 0.5792758
-0.3925838 -0.5345528 0.1206521
-0.3063888 -0.5311677 0.1196181
0.7026378 -0.006315768 0.5668203
0.7040059 -0.02134264 0.5790205
0.7032164 -0.03029054 0.5820975
0.703209 -0.003892422 0.5622603
0.6990702 -0.020908 0.5622603
-0.3191256 -0.5140496 0.1221068
0.699052 -0.03968954 0.562318
-0.2957859 -0.5139486 0.121101
0.7011039 -0.03792357 0.5792758
-0.2256636 -0.6181667 0.1375299
-0.2318535 -0.6169153 0.1190303
-0.2071644 -0.6167096 0.1193607
-0.1808067 -0.6175684 0.1368696
-0.1366177 -0.6181936 0.1373224
-0.1642335 -0.6166856 0.1192864
-0.1153046 -0.6164558 0.1197967
0.6995375 -0.05493927 0.5792758
0.6979799 -0.07195485 0.5622603
0.6014566 0.3152653 0.1377845
0.6025703 0.3044382 0.119854
0.6043692 0.3023889 0.1368696
0.6986324 -0.07093161 0.5851483
0.6022803 0.3518561 0.119854
0.5972217 0.3364202 0.119854
0.601265 0.3381763 0.1368696
0.6995126 -0.088485 0.5948737
0.6057751 0.3534358 0.1368696
0.6990963 -0.08954346 0.547149
0.6359434 0.3420904 0.1368696
0.6189671 0.3629813 0.1195608
0.6203939 0.353992 0.1368696
0.698671 -0.1135781 0.5666994
0.698862 -0.1056594 0.5865039
0.6699746 0.3100175 0.1368695
0.6699746 0.3198962 0.1206456
0.6552179 0.3227967 0.1368695
0.6527826 0.3362577 0.1191222
0.6434426 0.3364202 0.1368696
0.6991026 -0.1400174 0.5622603
0.6871512 0.3192033 0.1365991
0.7007856 -0.1405295 0.5860056
0.7003396 -0.1578078 0.5804267
0.6874561 0.3347363 0.1200822
0.7004741 -0.1572296 0.5626234
-0.6061973 -0.1130495 -0.3225522
0.6876433 0.3364202 0.1368695
0.6899894 0.3534358 0.1368695
0.6900176 0.3534358 0.119854
0.6986329 0.3704513 0.1368695
0.6933284 0.3704513 0.119854
0.7040059 0.3774394 0.1368695
0.7026699 0.387467 0.1213139
0.7002499 -0.2066966 0.562045
0.6352041 0.2343264 0.1368696
0.6156227 0.2683576 0.1368696
0.6359434 0.2337427 0.135962
0.6086357 0.2853732 0.1368696
0.623727 0.2683576 0.1028384
0.602964 0.3053029 0.1028384
0.5976762 0.3364202 0.1028384
0.7210215 0.387467 0.1395686
0.7040059 0.3897556 0.119854
0.717997 0.387467 0.1368695
0.7069244 0.4044826 0.1028384
0.7040059 0.4036658 0.1013801
-0.5506149 -0.3636531 0.1575617
-0.5504665 -0.317674 0.1509726
-0.5503876 -0.2925531 0.1557777
-0.5487328 -0.2797095 0.181233
-0.5493518 -0.293158 0.1709009
-0.5512112 -0.2474192 0.1440549
-0.548794 -0.2486445 0.1745508
-0.5494562 -0.2248974 0.1534605
-0.5485386 -0.2085186 0.1441839
-0.5465567 -0.2080799 0.1709009
-0.547512 -0.1906221 0.1531976
-0.5445555 -0.1910642 0.1709009
-0.5472077 -0.1740487 0.1538853
-0.5442078 -0.1740487 0.1709009
-0.5436613 -0.157033 0.1538853
-0.5464609 -0.157033 0.1709009
-0.5494065 -0.140036 0.1713178
0.6986727 -0.2247961 0.5622551
0.6873911 -0.1112747 0.1529831
0.6882687 -0.1018617 0.1843769
0.6888094 -0.07987046 0.1556891
0.688344 -0.06039774 0.1657194
0.6884124 -0.05511856 0.1531498
0.6895314 0.01886076 0.1572587
0.688127 -0.01818711 0.1546846
0.690374 -0.003461063 0.182377
0.6900173 0.01503545 0.1748157
0.6905898 0.04750913 0.16898
0.6991073 -0.274299 0.5626779
0.6897522 0.06440109 0.1695165
0.6878778 0.0811857 0.1709008
0.6869006 0.08193272 0.1594201
-0.5969152 -0.1059861 -0.3055365
0.6874959 0.09820139 0.1709008
0.6881237 0.09809005 0.1527716
0.6068719 0.2853732 0.1538853
0.6113407 0.2683576 0.1538853
0.6050894 0.2689684 0.1804371
0.6046008 0.2853732 0.1709008
0.6048272 0.3023889 0.1538853
0.6046434 0.3023889 0.1709008
0.6699746 0.2916869 0.1709008
0.6699746 0.3026809 0.1544338
0.6533902 0.3030062 0.1726934
0.6868827 0.3031144 0.1711953
0.599788 0.3364202 0.1538853
0.6019121 0.3322669 0.1538853
0.6019121 0.3364202 0.1610648
0.6026894 0.3194045 0.1538853
0.6044866 0.3194045 0.1709008
0.6083654 0.3364202 0.1709008
0.6358223 0.3260095 0.1715
0.635968 0.3364322 0.1539204
0.6224273 0.3369225 0.1715518
0.6019121 0.3405806 0.1538853
0.6189277 0.3458368 0.1538853
-0.6061973 -0.1040254 -0.3084026
0.6985033 -0.2757151 0.5804161
0.6527798 0.319195 0.1529999
0.6972485 -0.293158 0.5622603
-0.5574182 -0.142958 0.172198
-0.5592374 -0.1285718 0.1464314
-0.5513496 -0.1400174 0.1368696
-0.5383291 -0.6101333 0.1798738
-0.5518752 -0.5994393 0.1709009
-0.5495391 -0.5994393 0.1879166
-0.5553694 -0.5832617 0.1788811
0.6971527 -0.3378987 0.5629136
-0.6236914 -0.1143979 -0.3237744
-0.3980374 -0.6140739 0.2065398
-0.417877 -0.6152648 0.1611675
-0.4635556 -0.6140693 0.1773221
-0.3846943 -0.614591 0.1795341
-0.5512655 -0.4696956 0.1872155
-0.5534045 -0.512736 0.170695
-0.5522879 -0.4833034 0.1720127
-0.5513799 -0.4504024 0.1742227
0.6975685 -0.3612205 0.5622603
-0.3592628 -0.6144259 0.1997001
-0.3323957 -0.6164099 0.18063
-0.3447643 -0.6169457 0.1635433
0.6963692 -0.3782361 0.5622603
0.6966568 -0.3953077 0.5627067
0.694366 -0.3952518 0.5792758
0.6941898 -0.4122674 0.5792758
-0.6240571 -0.1056138 -0.306674
0.6997923 -0.003892422 0.5452446
0.6976098 -0.02128953 0.5451181
-0.5562806 -0.1592958 0.1980605
-0.5380795 -0.6052012 0.2057773
-0.5458688 -0.5990742 0.2069627
-0.5407374 -0.6015956 0.2389634
-0.5210912 -0.6101841 0.2365079
-0.551786 -0.5825791 0.2210007
-0.5022081 -0.6121787 0.2159253
-0.5044233 -0.6117399 0.2483722
-0.4592244 -0.6129506 0.2138725
-0.548719 -0.4344763 0.2458157
-0.5489244 -0.4091992 0.2212619
-0.5470617 -0.4089863 0.2532289
-0.5489762 -0.4479998 0.2318681
0.6904103 -0.5483009 0.2136881
0.6876178 -0.5667799 0.20399
0.6870773 -0.5727878 0.2344388
0.6913566 -0.3589783 0.2341624
0.6912304 -0.2950517 0.2626455
0.6905499 -0.2947181 0.2302094
0.6885088 -0.1523157 0.2069264
0.6893063 -0.1637099 0.2219399
0.6897255 -0.1316695 0.2290996
0.6897421 -0.1059861 0.2219478
0.6891711 -0.1022134 0.2388586
0.6988147 -0.06018543 0.5467119
-0.5506489 -0.5387793 0.2642317
-0.5482318 -0.4942843 0.2739875
-0.5492081 -0.5189556 0.283679
-0.5470259 -0.4095495 0.2729318
-0.5475842 -0.4492799 0.2723798
-0.5458877 -0.3624049 0.2535266
-0.5453436 -0.3782361 0.2729947
0.6898821 -0.107613 0.2702264
0.69054 -0.08897054 0.2729946
0.6897711 -0.07037705 0.2713365
0.6912152 -0.02450544 0.2687394
0.6913894 -0.009828985 0.2901346
0.69111 -0.005932152 0.2518605
0.6944879 0.02926993 0.2397225
0.6922615 0.01059985 0.282973
0.6938759 0.03600889 0.2549691
0.6923025 0.03013885 0.2729946
0.6904709 0.04715455 0.2729946
0.6919855 0.06417012 0.2559789
0.6903108 0.06417012 0.2729946
0.6091254 0.2173108 0.2729946
0.6189277 0.2063177 0.2559789
0.6187516 0.2002951 0.2721635
0.6113525 0.2173108 0.2559789
0.6025879 0.2362345 0.2559789
0.6030791 0.2343264 0.2729946
0.6028842 0.2513421 0.2698282
0.6155035 0.2703297 0.2729946
0.6020067 0.2679887 0.2555187
0.6150676 0.2859437 0.2565445
0.62774 0.2853732 0.2559789
0.6355541 0.2711707 0.2733392
0.6359434 0.2796032 0.2559789
0.6699746 0.2636268 0.2729946
0.6699746 0.2657167 0.2559789
0.653679 0.2684374 0.2598196
0.6848125 0.269404 0.2512226
0.6869902 0.2658737 0.2729946
0.6955034 0.2680696 0.2742046
0.6444352 0.2683576 0.2729946
0.698978 -0.1239509 0.539389
0.6992214 -0.1571462 0.5449694
0.7040059 0.272071 0.2729946
-0.7131315 -0.1166545 -0.2794808
0.6923811 -0.54966 0.3128539
0.6898378 -0.565408 0.3070259
0.6884394 -0.5704099 0.3098135
0.6937042 -0.5292366 0.2940347
0.6937525 -0.5253876 0.3228558
0.691475 -0.1811945 0.3457918
0.6909339 -0.2180113 0.2958088
0.6915764 -0.2196302 0.3166991
0.6924436 0.01253569 0.3247182
0.6920782 0.03013885 0.3240415
0.6903837 0.03013885 0.3070259
-0.540572 -0.3634547 0.3265038
-0.5415486 -0.3448962 0.3262551
-0.5415764 -0.3713315 0.3509857
-0.5454434 -0.3136497 0.3206488
-0.5490154 -0.34443 0.3583296
-0.5552124 -0.3013479 0.3416545
-0.5549867 -0.2813956 0.3281527
-0.5527583 -0.3068979 0.3467358
-0.5537418 -0.2767952 0.3220018
-0.5493368 -0.281905 0.3128237
-0.04831395 -0.6123732 0.3271866
-0.09625356 -0.6150744 0.3341723
-0.08574648 -0.6134585 0.3588744
0.680256 -0.5826232 0.3420088
0.669832 -0.5918875 0.3415215
0.6699746 -0.5920664 0.3580728
0.6992354 -0.1804818 0.5369323
0.6945423 -0.514096 0.3411601
0.6917628 -0.5422771 0.3422769
0.6934388 -0.5298388 0.3622639
0.693778 -0.5148103 0.3581792
0.693155 -0.4833847 0.3463038
0.6940032 -0.3329872 0.3562303
0.694203 -0.308461 0.362931
0.6935344 -0.2935076 0.3502898
0.6925119 -0.2525872 0.3379642
0.6931344 -0.2908695 0.3689238
0.6927127 -0.2594008 0.3668522
0.6928992 -0.2149277 0.3587454
0.6919432 -0.157033 0.3580728
0.6916842 -0.161638 0.3705615
0.6906522 -0.1550801 0.3396642
0.6907229 -0.1295416 0.3542883
0.6911442 -0.1083751 0.360597
0.6918805 -0.09681731 0.3469293
0.6699638 -0.5911783 0.3808217
0.6799118 -0.5824089 0.3803387
0.6867405 -0.5659143 0.3428948
0.6997127 -0.2352837 0.5417362
0.6919388 -0.5480096 0.3800746
0.6924499 -0.46376 0.3201153
0.693397 -0.4510317 0.398338
0.6930784 -0.4461639 0.3571274
0.6934315 -0.4295245 0.3496093
0.694321 -0.4292829 0.3750883
0.6941968 -0.4061781 0.3795202
0.693037 -0.3883001 0.3567368
0.6932713 -0.3618796 0.358699
0.6962991 -0.3433067 0.3973795
0.6927966 -0.2343143 0.3811115
0.6931058 -0.2035019 0.3893797
0.6929561 -0.1701983 0.3848451
0.6922236 -0.1400174 0.3750883
0.6106111 0.2343264 0.3750883
0.6172276 0.2002951 0.3410571
0.6223693 0.2002951 0.3750883
0.6099049 0.2343264 0.3410571
0.6221957 0.2490079 0.3410571
0.6359434 0.2622313 0.3750883
0.6359434 0.2567922 0.3410571
0.6529589 0.2592627 0.3410571
0.6699746 0.2638777 0.3750883
0.6699746 0.2624911 0.3410571
0.6869902 0.2663249 0.3410571
0.6875249 -0.5683792 0.4185686
0.6935031 -0.5134262 0.3977731
0.6931872 -0.4947324 0.410324
0.6939424 -0.4208696 0.3904733
0.6954266 -0.3104182 0.408506
0.6966985 -0.3329794 0.4089819
0.6937144 -0.292654 0.3941832
0.6921956 -0.138106 0.4061675
0.6928811 -0.1197459 0.4094981
0.6923754 -0.1070257 0.3833388
0.6180922 0.2343264 0.4091196
0.6359434 0.2659072 0.4091196
0.6454567 0.2683576 0.4091196
0.6699746 0.2683576 0.3952059
-0.2318535 -0.6131434 0.4091197
-0.248782 -0.6114579 0.4099532
-0.2472313 -0.6108812 0.4267849
-0.2056796 -0.6117502 0.4263147
-0.2007358 -0.613446 0.4099195
-0.1808067 -0.6136217 0.4261352
-0.1645729 -0.6133083 0.4248195
-0.07684216 -0.6128645 0.4075482
-0.1180384 -0.6129756 0.4105982
-0.08020043 -0.6117671 0.4272139
-0.0466347 -0.6105603 0.4201371
-0.01177041 -0.6106961 0.4450002
-0.01239079 -0.6102276 0.4021231
-0.0003406703 -0.6103591 0.4277896
0.03707331 -0.6095161 0.4240872
0.05723992 -0.6072208 0.426062
0.04804971 -0.6090678 0.4067333
0.08921009 -0.6065596 0.429423
0.09144336 -0.6084144 0.4091196
0.1091334 -0.6071546 0.4035518
0.1146864 -0.6062659 0.4320513
0.1384922 -0.6074455 0.4066858
0.1602051 -0.6065722 0.4180131
0.1939976 -0.6066314 0.4105878
0.1935529 -0.6054459 0.444458
0.2281558 -0.6039462 0.4272341
0.3806823 -0.5966913 0.4523732
0.4127835 -0.5759686 0.4577049
0.399438 -0.5835267 0.4431509
0.6981983 -0.2761424 0.5452446
0.4147403 -0.5746834 0.4431509
0.4317558 -0.568666 0.4601665
0.4317558 -0.5686624 0.4431509
0.5344902 -0.5966516 0.449635
0.5007012 -0.5794861 0.4429471
0.4998254 -0.5786308 0.4602432
0.5533607 -0.5993255 0.4361674
0.5509316 -0.5992471 0.4679574
0.6990737 -0.293158 0.5452446
0.4487714 -0.5673354 0.4601665
0.4487714 -0.5675485 0.4431509
0.4657871 -0.5688126 0.4431509
0.4657871 -0.5684063 0.4601665
0.4828027 -0.5723476 0.4431509
0.4828027 -0.5717324 0.4601665
0.699208 -0.3079942 0.5354978
-0.562113 -0.3104137 -0.2739954
-0.5636358 -0.289942 -0.2954111
-0.563691 -0.2919494 -0.2716729
-0.6402285 -0.1113851 -0.3055365
0.6994653 -0.3400587 0.5441422
0.5982759 -0.599389 0.436654
0.6351417 -0.5995594 0.472885
0.6333798 -0.5994978 0.4472747
0.6527225 -0.5986053 0.4537672
0.6941859 -0.5150455 0.4516102
0.6943418 -0.4929147 0.4624391
0.6931478 -0.4972918 0.4424772
0.6943452 -0.4620305 0.4336916
0.6947476 -0.4624255 0.4844367
0.6940754 -0.4465346 0.430709
0.4317558 -0.5738378 0.4941977
0.4150702 -0.5826639 0.4925147
0.4178209 -0.5840158 0.5112133
0.4317522 -0.5804346 0.5138299
0.4946914 -0.5834805 0.5116588
0.516834 -0.5914878 0.4941977
0.4999065 -0.5823117 0.4945335
0.516834 -0.5942448 0.5112133
0.5338495 -0.5983371 0.4941977
0.5338495 -0.5982867 0.5112133
-0.6622025 -0.1226665 -0.3268953
0.6981131 -0.379384 0.5439256
0.5424327 -0.5987661 0.5254158
0.5695565 -0.5997125 0.5143759
0.5535259 -0.6000897 0.4922376
0.4487714 -0.5716418 0.4941977
0.4644653 -0.5790671 0.5114386
0.4657871 -0.5719976 0.4941977
0.4828027 -0.574631 0.4941977
0.4828027 -0.581265 0.5136994
0.5957616 -0.5991235 0.5135793
0.6023927 -0.5994623 0.4885157
0.6976817 -0.4281285 0.5574981
0.6344752 -0.6007648 0.5092248
0.653216 -0.5994332 0.4896324
0.65304 -0.5994513 0.5115478
0.6699796 -0.5948268 0.5098017
0.6880392 -0.5689845 0.4941977
0.6828484 -0.5825579 0.5009893
0.6865162 -0.5652984 0.5237708
-0.120813 -0.6083261 0.5174747
-0.147103 -0.6083102 0.5390594
-0.1150403 -0.6057345 0.5452291
0.6925585 -0.5486308 0.4890817
0.6895495 -0.548295 0.5241656
0.6941283 -0.5229447 0.4984094
0.692941 -0.4821221 0.5127659
0.6947036 -0.4779017 0.4779547
0.694313 -0.4633143 0.5112133
0.6967817 -0.4451014 0.5033967
0.4651608 -0.583396 0.5195876
0.4317465 -0.5889641 0.5281639
0.4828027 -0.5891796 0.528229
0.4998184 -0.5925524 0.528229
0.516834 -0.5963858 0.528229
-0.5672962 -0.1910642 -0.3225522
0.6358182 -0.598078 0.5427125
-0.201188 -0.6071633 0.5409281
-0.2276686 -0.6086963 0.5299489
-0.2318707 -0.607119 0.5453266
-0.2488691 -0.6111181 0.5282291
0.6528084 -0.5973141 0.5414239
-0.2490024 -0.6104758 0.5455877
0.6806517 -0.5824237 0.528229
-0.2745043 -0.611461 0.5282099
-0.2829004 -0.6107047 0.5452446
0.691641 -0.5271651 0.5272257
0.6925231 -0.4973454 0.528229
0.6934552 -0.4778203 0.5270697
0.6970324 -0.4496109 0.5378253
0.6986431 -0.3882096 0.509388
0.698773 -0.3890544 0.523508
-0.5406529 -0.550424 0.5809029
-0.5538825 -0.5483923 0.5651296
-0.5453824 -0.5375746 0.5620757
0.471197 -0.5969957 0.6113836
0.4491775 -0.5974915 0.5712091
0.4284678 -0.5978068 0.5902157
0.4960925 -0.5977126 0.5792371
0.5562212 -0.5979215 0.6033422
0.5560848 -0.5977856 0.5796449
0.5856495 -0.5992081 0.5822986
-0.3013505 -0.6102251 0.5450715
-0.5656976 -0.2080799 -0.3055365
-0.5658619 -0.2080799 -0.3225522
0.655596 -0.5999378 0.5802889
0.6349844 -0.6004093 0.580615
0.6357194 -0.6006778 0.6054273
0.6695663 -0.5958461 0.5748076
0.6699746 -0.5938292 0.5962914
0.681537 -0.5827044 0.5820622
0.6867548 -0.5655569 0.5796791
0.6846125 -0.5648395 0.61078
-0.3566637 -0.6097993 0.5325497
-0.327361 -0.6105959 0.5161656
0.6900809 -0.5462103 0.5807902
0.689689 -0.5127431 0.5973116
0.689075 -0.5183955 0.6106994
0.6905536 -0.5135612 0.5810726
0.6938798 -0.4485645 0.5963198
0.6935593 -0.4633143 0.5792758
0.6960574 -0.4298807 0.579531
0.6930977 -0.4292829 0.5962914
0.6928775 -0.4121553 0.5983301
0.6939402 -0.3944757 0.598137
0.6953859 -0.3782361 0.6133071
0.6954706 -0.3612205 0.6133071
0.6975458 -0.3442048 0.6133071
0.6986665 -0.3211134 0.6147131
0.7000909 -0.2923932 0.612963
0.700649 -0.2594403 0.6134501
0.70061 -0.1395994 0.614369
0.7000199 -0.1059861 0.6133071
0.7016377 -0.07367361 0.6117873
-0.562762 -0.2250955 -0.3055365
-0.3890339 -0.6060845 0.5377123
-0.3652824 -0.608741 0.5438048
-0.5623925 -0.2426779 -0.3084038
-0.4171195 -0.6021295 0.538205
-0.4001384 -0.6029513 0.5583341
-0.4358741 -0.5993576 0.5280111
-0.436041 -0.5971569 0.5452446
-0.4530566 -0.5953279 0.5452446
-0.4530566 -0.5965326 0.5282291
-0.4700723 -0.5956461 0.5452446
-0.4700723 -0.5958531 0.5282291
-0.4892564 -0.5951639 0.5258512
-0.5042409 -0.5932199 0.5161362
-0.50515 -0.5903547 0.5484003
-0.5214103 -0.5826583 0.5452446
-0.5218994 -0.5832283 0.5282291
-0.544854 -0.5313767 0.5282291
-0.5500832 -0.5143611 0.5282291
-0.5491074 -0.5062604 0.5252557
-0.3661821 -0.3411163 -0.3252525
-0.3970111 -0.3423958 -0.3054214
-0.5544938 -0.5298798 0.5452446
-0.5451645 -0.5483923 0.5452446
-0.5380461 -0.5481458 0.5287308
-0.4307657 -0.3418077 -0.2972074
-0.5364854 -0.5604546 0.5445171
-0.5303699 -0.565408 0.5282291
0.3977246 -0.5934423 0.4941977
0.3983415 -0.5886207 0.4769799
0.3786613 -0.5992819 0.4939832
0.380709 -0.5980508 0.4771821
0.27874 -0.6029691 0.4825886
0.2043487 -0.6033676 0.4881981
0.2315948 -0.6030406 0.5103173
0.160064 -0.6038678 0.47637
0.1244072 -0.6058666 0.4769334
0.1253807 -0.6038953 0.4968286
0.02485815 -0.1845726 -0.6850865
0.01512881 -0.186376 -0.684623
0.05283479 -0.1852782 -0.6864192
0.07953722 -0.6048201 0.4935757
0.07101443 -0.6064973 0.4741781
0.6592878 -0.1740487 -0.696896
0.6622471 -0.1569726 -0.7154491
0.6636347 -0.157033 -0.696896
0.663458 -0.1426596 -0.7155068
0.6638651 -0.1394999 -0.6963884
0.6674232 -0.1218767 -0.7156956
0.6676349 -0.1059826 -0.6961038
0.667904 -0.1064532 -0.7157185
0.6651008 -0.0885942 -0.7153752
0.6669703 -0.08852613 -0.6882995
0.6650602 -0.07207382 -0.6856239
0.6637257 -0.07120544 -0.7155195
0.6652689 -0.0560143 -0.6965517
0.6666007 -0.03792357 -0.696896
0.6655264 -0.020908 -0.696896
0.666985 0.03013885 -0.696896
0.6648334 0.01312327 -0.696896
0.6010807 -0.1932679 -0.6582536
0.584693 -0.1908253 -0.6736188
0.5836793 -0.1930556 -0.630318
0.567406 -0.1863416 -0.6500947
0.6367344 -0.191015 -0.6649073
0.6184673 -0.1928808 -0.6628453
0.6386629 -0.1916921 -0.6458491
0.04293378 -0.6068805 0.4800873
0.0574121 -0.6055748 0.4941978
0.6532524 -0.1857778 -0.6573272
0.663744 -0.1744367 -0.670048
0.6701791 -0.1741115 -0.6336571
0.6701752 -0.1603297 -0.6464037
0.6652695 -0.1564962 -0.678067
0.6695154 -0.1415726 -0.6458491
0.6668876 -0.1400174 -0.6628647
0.04039652 -0.6075957 0.4941978
0.02331073 -0.60726 0.4921746
0.6685406 -0.120994 -0.6608185
-0.03343949 -0.6075474 0.4940929
0.002134591 -0.6078095 0.4747705
0.6664842 -0.02192312 -0.6465878
0.6661357 -0.03968161 -0.67011
0.6661386 -0.04743868 -0.6519129
0.6677113 0.02882677 -0.6641759
0.6662592 -0.005864561 -0.6461675
0.667605 0.02459508 -0.6470848
0.667387 0.04715455 -0.6458491
0.6678439 0.04715455 -0.6628647
0.670256 0.05827278 -0.6444086
0.6699746 0.05554104 -0.6628647
0.6757708 0.06735289 -0.6675951
-0.7297792 -0.1705844 -0.6490595
-0.7302778 -0.171111 -0.639426
-0.7253067 -0.1718317 -0.6288334
-0.7005801 -0.1713484 -0.645475
-0.6963177 -0.1716477 -0.6281072
-0.6681431 -0.1724096 -0.6483333
-0.6693706 -0.1716367 -0.628904
-0.6428362 -0.1731267 -0.6304222
-0.6079855 -0.1745164 -0.6281716
-0.5891729 -0.1740831 -0.6295007
-0.6096832 -0.173902 -0.6509792
-0.03958488 -0.6085163 0.4742135
-0.5264723 -0.1780882 -0.6308869
-0.5396779 -0.1762968 -0.6462274
-0.5577818 -0.1762292 -0.6293936
-0.6373913 -0.1723194 -0.6494776
-0.06003115 -0.609219 0.4894707
-0.5041036 -0.1781189 -0.6458491
-0.5046705 -0.1781295 -0.6286974
-0.4786528 -0.179513 -0.6536394
-0.460225 -0.18029 -0.6256644
-0.4530567 -0.1807675 -0.6458491
-0.4353888 -0.1795234 -0.646197
-0.4360411 -0.1813287 -0.6288335
-0.4270726 -0.1808143 -0.6218947
-0.4028615 -0.1796311 -0.6296401
-0.3679786 -0.1819177 -0.6288335
-0.3999296 -0.1800845 -0.6586721
-0.3686025 -0.1818181 -0.6471566
-0.3276564 -0.1835038 -0.6196419
-0.3310106 -0.1814798 -0.6449884
-0.3089409 -0.1829861 -0.6265779
0.5871121 -0.1919355 -0.5951426
0.5848964 -0.1930776 -0.6118178
0.5683746 -0.1910619 -0.6071364
0.6162344 -0.1947224 -0.6131809
-0.08504628 -0.6111698 0.4736246
-0.0811279 -0.6093154 0.4939848
0.6352594 -0.1942496 -0.6101115
0.6502869 -0.1902254 -0.5948023
0.6521154 -0.1907632 -0.6118178
0.6697607 -0.1727216 -0.6118259
-0.1398224 -0.6093893 0.4943268
0.6987579 0.06417012 0.4771821
0.6988088 0.06041718 0.4726434
0.6978567 0.06393796 0.4482547
0.6708925 -0.08329988 -0.5987804
0.6711832 -0.1059861 -0.6118178
0.6713842 -0.116356 -0.6011908
0.6715434 -0.08897054 -0.6118178
0.6940292 -0.4287804 0.4292994
0.6953065 -0.430082 0.4449284
0.6684021 -0.003892422 -0.6118178
0.6698812 -0.02321321 -0.6063011
0.6702825 -0.003892422 -0.5970985
0.6708856 0.02201217 -0.6017525
0.6690621 0.04687196 -0.6104418
0.6700193 0.03038371 -0.6124172
0.6706584 0.06311935 -0.5951761
0.6702321 0.0629847 -0.6118178
0.6743139 0.0811857 -0.6118178
0.6732014 0.0811857 -0.5948023
0.6843498 0.115217 -0.5948023
-0.2097374 -0.1855919 -0.5623138
-0.1633289 -0.1872886 -0.5610611
-0.1808067 -0.1873096 -0.5777866
-0.1478399 -0.1866823 -0.578904
-0.1406061 -0.1862158 -0.5603315
-0.1127442 -0.1869378 -0.5777866
-0.09791873 -0.1862787 -0.5605012
-0.09572862 -0.1861935 -0.5777866
-0.07918955 -0.184806 -0.5570825
-0.07871293 -0.1862789 -0.5777866
-0.0619511 -0.1884093 -0.5763786
-0.0106505 -0.1892391 -0.560771
-0.0106505 -0.1900483 -0.5777866
-0.0264429 -0.1911617 -0.572118
0.690905 -0.5496627 0.4373949
0.6876049 -0.5674816 0.4562281
0.02047573 -0.1922424 -0.5765016
0.6817883 -0.5825258 0.4248602
0.006365195 -0.1900781 -0.560771
0.01899054 -0.1914727 -0.5605868
0.03890283 -0.1906429 -0.562068
0.6832986 -0.58251 0.474893
0.04212817 -0.1924498 -0.5780051
0.6701018 -0.5928516 0.4167265
0.6700227 -0.5951035 0.4703859
0.08280645 -0.1908827 -0.5706897
0.6533856 -0.5972627 0.4186006
0.06596543 -0.1902426 -0.5621166
0.6364439 -0.5987056 0.4196198
0.1189965 -0.1908533 -0.574154
0.1246236 -0.1907581 -0.5778313
0.1595057 -0.1877054 -0.5777866
-0.2318536 -0.1863687 -0.5437554
-0.2488692 -0.186116 -0.560771
-0.2488692 -0.1837602 -0.5437554
-0.2148379 -0.1845495 -0.5437554
-0.194307 -0.1836894 -0.5423151
-0.1535984 -0.1843797 -0.5452244
-0.1001172 -0.1835734 -0.5423187
-0.06169733 -0.1855383 -0.5437554
-0.04451111 -0.1911824 -0.5671847
-0.04468164 -0.1872683 -0.5437554
-0.01065049 -0.1861522 -0.5437554
0.00636521 -0.1860721 -0.5437554
0.02337907 -0.1867951 -0.5439322
0.06103971 -0.1895392 -0.5339587
0.07985833 -0.1897585 -0.5322289
0.113314 -0.1881537 -0.5414511
0.6361639 -0.1924615 -0.5223451
0.600615 -0.1910886 -0.5369631
0.6496254 -0.1902033 -0.5267397
0.6695807 -0.1735376 -0.5306935
0.5648454 -0.5995559 0.474341
0.6696008 -0.1276252 -0.5286065
0.6700384 -0.08836389 -0.5276984
0.6684742 -0.07195485 -0.5267397
0.6697184 -0.07486254 -0.5097241
0.6711338 -0.08897054 -0.5097241
0.4992907 -0.5827476 0.4136453
0.6714349 -0.04077446 -0.5271919
0.6713963 -0.05393338 -0.4951774
0.4826728 -0.5743902 0.4248503
0.4657871 -0.571028 0.4261352
0.6721625 -0.03792357 -0.5097241
0.6706415 -0.020908 -0.5267397
0.6716714 -0.020908 -0.5097241
0.673099 -0.003892422 -0.5097241
0.6719648 -0.003892422 -0.5267397
0.6720902 0.01312327 -0.5097241
0.6730202 0.02884448 -0.5233501
0.6743669 0.04849595 -0.5259827
0.6748462 0.04715455 -0.5097241
0.674328 0.06417012 -0.5097241
0.6740279 0.08213824 -0.5127207
0.1108293 -0.3190616 -0.4757591
0.1139366 -0.3088897 -0.4768137
0.09410009 -0.3101736 -0.4754919
0.1449641 -0.3101926 -0.4785399
0.1357374 -0.3257254 -0.4739685
0.1807197 -0.3259236 -0.4747985
0.1315236 -0.2928942 -0.4749065
0.1950525 -0.2908358 -0.4760075
-0.09582111 -0.1910523 -0.4756508
-0.09572861 -0.1861738 -0.4927085
-0.1115828 -0.1907871 -0.4789002
-0.07871291 -0.1902496 -0.4739152
-0.07463698 -0.1859075 -0.4929806
0.4487714 -0.5694368 0.4261352
-0.06169733 -0.190537 -0.4743596
-0.04873815 -0.1913024 -0.4765694
-0.04541297 -0.1881154 -0.4927068
0.5821178 -0.3100715 -0.4881772
0.6092405 -0.3100021 -0.4903931
0.5949767 -0.2933266 -0.486912
0.6189276 -0.293158 -0.4884062
0.6359433 -0.3101736 -0.4907764
0.6356596 -0.2861572 -0.4874056
0.6174792 -0.2757642 -0.4847673
0.5561218 -0.2556974 -0.4758414
0.5860167 -0.2475358 -0.4756888
0.6355208 -0.2593359 -0.4813791
0.6357899 -0.2435682 -0.4769232
0.6529589 -0.3101736 -0.4861536
0.6529589 -0.293158 -0.4841239
0.661518 -0.3101736 -0.4756928
0.6624531 -0.293158 -0.4756928
0.6529589 -0.2761424 -0.4812544
0.660755 -0.2761424 -0.4756928
0.6552708 -0.2591267 -0.4770476
0.4317558 -0.5708699 0.4261352
0.6529589 -0.2433004 -0.4754773
0.453985 -0.2066537 -0.4745173
0.5278206 -0.206462 -0.4745947
0.5508652 -0.2059079 -0.4741487
0.5678807 -0.2005109 -0.4756928
0.6003823 -0.1996309 -0.4756458
0.6189276 -0.2014109 -0.4756928
0.6359433 -0.2071387 -0.4752443
0.5338495 -0.5979912 0.4261352
0.6529589 -0.1984622 -0.4756928
0.6633121 -0.1910642 -0.4756928
0.6706213 -0.1726561 -0.4754313
0.516834 -0.5904541 0.4261352
-0.7084999 -0.1698692 -0.4712986
-0.7224847 -0.1686599 -0.4758272
-0.721676 -0.1684438 -0.4588501
-0.6868708 -0.1708654 -0.4603169
-0.6687346 -0.1736126 -0.4708644
-0.6572442 -0.1733449 -0.4586771
-0.2488692 -0.2060647 -0.4569345
-0.2299935 -0.2053894 -0.4567401
-0.2473959 -0.1911957 -0.4763422
-0.2319305 -0.1903438 -0.4746076
0.4142576 -0.5768206 0.4254209
-0.1876819 -0.191151 -0.4758914
-0.1808067 -0.2058903 -0.4568705
0.3977246 -0.586895 0.4261352
-0.1589599 -0.1901054 -0.4734877
-0.157877 -0.2010899 -0.4590128
0.380709 -0.5978954 0.4261352
0.3656739 -0.5997099 0.4427525
-0.1288423 -0.1908445 -0.4754578
-0.1127442 -0.2019514 -0.4586772
-0.09528676 -0.3275319 -0.4638894
-0.1127442 -0.3286128 -0.4600354
-0.09572861 -0.3332727 -0.4586772
-0.06435046 -0.3330066 -0.4588208
-0.0976512 -0.310339 -0.4663237
-0.06434058 -0.3101421 -0.4685906
-0.06169733 -0.3271893 -0.465073
-0.04399568 -0.3323215 -0.4584765
-0.04468164 -0.3271893 -0.4647815
-0.03317417 -0.3098242 -0.4710858
-0.01024012 -0.3271968 -0.4683092
-0.009843305 -0.3353387 -0.458703
-0.01008993 -0.3102385 -0.4732597
0.02269427 -0.3271297 -0.4685158
0.02508584 -0.3349009 -0.4588881
-0.09682806 -0.2916782 -0.4608707
-0.04561187 -0.278336 -0.4616856
-0.02766606 -0.293158 -0.4668882
-0.01031508 -0.2840734 -0.466779
-0.0279469 -0.2675417 -0.4616828
0.009364754 -0.2884036 -0.4690745
0.01842586 -0.2751032 -0.4665816
-0.04684046 -0.2625186 -0.4575017
-0.008748636 -0.2450522 -0.4577064
0.6932424 -0.428835 0.4098615
0.01962162 -0.2405883 -0.4594435
0.6529589 -0.2080799 -0.470658
0.6729718 -0.1529229 -0.4546551
0.6733409 -0.1285766 -0.4620399
0.67344 -0.1062601 -0.4569873
0.6725481 -0.0891906 -0.4569043
0.6712794 -0.08349401 -0.4893007
-0.5018174 -0.3371992 -0.3064906
-0.5211192 -0.3356564 -0.3055366
0.6754737 0.08401573 -0.4797567
0.6748238 0.1321178 -0.4506679
0.68357 0.1536417 -0.4724869
0.6783507 0.1498942 -0.4483663
0.6837196 0.1625744 -0.4518519
-0.403493 -0.3427033 -0.2795769
-0.3486955 -0.3419241 -0.2929992
-0.2107984 -0.2250124 -0.447962
-0.2436064 -0.224966 -0.4474374
-0.2206484 -0.2429259 -0.4477438
-0.166801 -0.2424592 -0.4485879
-0.1636521 -0.2253113 -0.4480314
0.6930303 -0.5292742 0.4325258
-0.1630407 -0.208268 -0.4540741
-0.1002185 -0.2244904 -0.4492226
-0.1085604 -0.2439481 -0.4506499
-0.1128733 -0.2080042 -0.4540837
-0.1127442 -0.3379325 -0.4416616
-0.09449559 -0.33904 -0.4416884
-0.06278922 -0.3389271 -0.4418339
-0.04468164 -0.3383067 -0.4416616
-0.0178142 -0.3392991 -0.4425436
0.02338079 -0.3389009 -0.4416616
-0.09750839 -0.2601555 -0.4536635
-0.07037397 -0.2409427 -0.4510745
-0.04468164 -0.2421111 -0.4537595
-0.7082911 -0.1668177 -0.4416616
-0.7208453 -0.167318 -0.4414121
-0.7200323 -0.1647035 -0.4243459
-0.6909288 -0.1629403 -0.4252957
-0.6742598 -0.1629082 -0.4246459
-0.6742598 -0.1677645 -0.4416616
-0.6572442 -0.1677068 -0.4246459
-0.6572442 -0.1705981 -0.4416616
-0.5667725 -0.3101736 -0.4246459
-0.5551504 -0.3201932 -0.4416616
-0.5572938 -0.3101736 -0.4439661
-0.5555644 -0.3279034 -0.4258674
-0.5381348 -0.3346047 -0.424646
-0.5397016 -0.3276566 -0.4427275
-0.5211192 -0.3283492 -0.4429958
-0.5219593 -0.3344854 -0.425436
-0.5563086 -0.293158 -0.4426282
-0.5656145 -0.293158 -0.4246459
-0.5552141 -0.2758995 -0.4417575
-0.5681665 -0.2760766 -0.424654
-0.5641273 -0.2591267 -0.4246459
-0.5551504 -0.2591267 -0.4373207
-0.5556228 -0.2389603 -0.4252816
-0.5340661 -0.253597 -0.440274
-0.5381348 -0.2421111 -0.4361254
0.5874562 -0.5994257 0.4018248
-0.4992543 -0.3341151 -0.4235292
-0.4985722 -0.3279681 -0.4425825
-0.4700723 -0.3290174 -0.443779
-0.4596119 -0.3360453 -0.4245425
-0.4530567 -0.3318162 -0.4416616
-0.4342387 -0.3368777 -0.4245799
-0.4339401 -0.3294923 -0.4439251
-0.3850381 -0.3348143 -0.4245161
-0.3669376 -0.3284073 -0.4433061
-0.4371288 -0.2605432 -0.4424535
-0.3720858 -0.2454771 -0.4405781
-0.407455 -0.2412872 -0.4380206
-0.2306122 -0.3367568 -0.4019306
-0.2519324 -0.3341905 -0.4409157
-0.2526068 -0.3384799 -0.3963954
-0.2277035 -0.3361167 -0.4224215
-0.192509 -0.3369132 -0.4211135
-0.1110512 -0.3390963 -0.4252988
0.1981434 -0.3383536 -0.4129443
0.1616436 -0.3388521 -0.424985
0.1757728 -0.3383027 -0.4082774
0.3057671 -0.3374745 -0.4264937
0.247952 -0.3381696 -0.4110467
0.2582825 -0.3377823 -0.3980276
0.3134231 -0.3374758 -0.3926089
0.3290433 -0.3377476 -0.4057944
0.3686854 -0.3374052 -0.4121019
0.4427188 -0.3385931 -0.4243396
0.3816063 -0.3378036 -0.4246258
0.4311224 -0.3376847 -0.401772
0.4532263 -0.3381392 -0.4049121
0.4649873 -0.3373556 -0.4250832
0.5104082 -0.3376136 -0.4204872
0.5500462 -0.3372951 -0.4074692
0.5168567 -0.337293 -0.4078359
0.676079 0.06451756 -0.3916598
0.6775774 0.0959276 -0.3896821
0.6753194 0.0811857 -0.4076304
0.6757525 0.09820139 -0.4076304
0.67768 0.1151201 -0.4066416
0.6783093 0.1485395 -0.4072399
0.6791519 0.1483141 -0.3873223
0.6797414 0.1662638 -0.4076304
0.6795697 0.1665424 -0.3901347
0.6844867 0.1813066 -0.4112392
0.68054 0.183363 -0.3898809
0.6851596 0.1908565 -0.3907894
-0.5608676 -0.2070979 -0.3739292
-0.570288 -0.1740487 -0.373599
-0.6572441 -0.1489184 -0.373599
-0.6402285 -0.1510053 -0.373599
-0.6232129 -0.1481276 -0.373599
0.4657871 -0.5776842 0.4091196
0.4487714 -0.5774078 0.4091196
-0.6061973 -0.1477023 -0.373599
-0.5891817 -0.1522553 -0.373599
-0.5776237 -0.157033 -0.373599
-0.572166 -0.1659482 -0.373599
0.4317558 -0.5751264 0.4091196
-0.3675695 -0.3365554 -0.4067492
-0.3093093 -0.3386613 -0.3829066
-0.3218866 -0.3369691 -0.4054134
-0.2660881 -0.3380256 -0.4074392
-0.1458377 -0.33772 -0.3706519
-0.1273043 -0.3386966 -0.3689927
-0.09240879 -0.3408871 -0.3925236
-0.04723918 -0.3406356 -0.3723122
-0.08505884 -0.3417842 -0.3557073
-0.05253959 -0.340756 -0.400392
-0.02635086 -0.3413921 -0.3584788
-0.00375925 -0.3403383 -0.4255843
0.6795974 0.1834605 -0.3650176
0.678728 0.1466258 -0.340835
0.6795737 0.1832795 -0.3395679
-0.3298536 -0.3410465 -0.3166817
-0.3409117 -0.3414503 -0.3395922
-0.3139518 -0.340615 -0.3385347
-0.2506121 -0.3420534 -0.3199613
-0.2715335 -0.3407186 -0.3538429
-0.2413774 -0.3409761 -0.3403158
-0.2318536 -0.3418416 -0.3225522
-0.2073807 -0.3401179 -0.3186416
-0.2076379 -0.3413975 -0.3396741
-0.1758544 -0.3404299 -0.3379883
-0.02739391 -0.3402129 -0.3210568
-0.04429626 -0.3402243 -0.3440988
-0.05516924 -0.3413131 -0.3134311
-0.004997373 -0.3402872 -0.3162224
-0.007983208 -0.3400572 -0.3392064
0.02476701 -0.3411433 -0.3235034
0.08817444 -0.3420469 -0.348908
0.04975089 -0.340425 -0.3051722
0.1080003 -0.3412333 -0.3421318
0.1079355 -0.3391169 -0.3195269
0.1267459 -0.3386592 -0.3482937
0.1285499 -0.3359723 -0.2894156
0.679169 0.1670929 -0.3121191
0.6799453 0.2006282 -0.313989
0.6828879 0.2174814 -0.3113703
0.6875654 0.2313537 -0.3098014
-0.2992176 -0.3428725 -0.2905556
-0.2446729 -0.3419725 -0.306464
-0.2322764 -0.3400369 -0.2862298
-0.1785114 -0.3398309 -0.3072458
-0.1539471 -0.3398561 -0.3363663
-0.09615582 -0.3421741 -0.310732
-0.1217606 -0.3403441 -0.330961
-0.1127442 -0.3406983 -0.3055366
0.00636521 -0.3396404 -0.3055366
0.02338079 -0.3392863 -0.3055366
0.09144333 -0.3400113 -0.3055366
0.2939994 -0.3362443 -0.2980131
0.2704749 -0.3354916 -0.2765131
0.2961504 -0.3349558 -0.267569
0.3116137 -0.3342813 -0.2706482
0.333451 -0.3351411 -0.2882454
0.3687132 -0.3338519 -0.2649449
0.4266248 -0.334356 -0.2720937
0.449087 -0.3346127 -0.2605281
0.4792805 -0.3357527 -0.2896257
0.5677788 -0.3372356 -0.2889403
0.567944 -0.3374261 -0.2698094
0.6189276 -0.3380159 -0.2715053
0.6367949 -0.3377278 -0.2677701
0.6529906 -0.3361781 -0.2646298
0.6681522 -0.3248035 -0.2688934
0.5489982 -0.5997308 0.4111451
0.5338495 -0.5985706 0.4091196
0.6742277 -0.3101853 -0.2884528
0.6739335 -0.3102438 -0.2677157
0.6746235 -0.293864 -0.3137572
0.6759085 -0.2661321 -0.2578886
-0.6912754 -0.1054283 -0.2561552
-0.6743011 -0.1009928 -0.2466474
-0.6572441 -0.1002241 -0.2544897
-0.6402285 -0.095608 -0.2544897
-0.6402285 -0.1004279 -0.2715053
-0.623508 -0.08880019 -0.2580046
-0.6219478 -0.08961958 -0.2715053
0.516834 -0.5940173 0.4091196
-0.6061973 -0.08111548 -0.2544897
-0.6061973 -0.08441842 -0.2715053
-0.5891817 -0.0832473 -0.2544897
-0.5865976 -0.08738834 -0.2715053
-0.5720277 -0.1057125 -0.2722897
-0.579428 -0.08897054 -0.2544897
-0.572166 -0.0966804 -0.2544897
-0.5629116 -0.1058855 -0.2395637
-0.5630351 -0.262432 -0.3098622
-0.563516 -0.2716225 -0.2911057
0.6797137 -0.1144027 -0.2717437
0.6797323 -0.04683644 -0.2526483
0.6791608 -0.08546937 -0.2720864
0.679745 -0.01898855 -0.2689781
0.680049 0.03389722 -0.2701878
0.6812612 0.004443705 -0.2505725
0.6804367 0.06537175 -0.2627633
0.6787271 0.1050137 -0.2762194
0.6798778 0.1086521 -0.2504742
0.6791739 0.1361201 -0.2722006
0.6791455 0.1807152 -0.2618205
0.6790505 0.1589701 -0.2493473
0.414217 -0.5818952 0.4043495
-0.5599639 -0.2439677 -0.2692789
-0.5601312 -0.2482055 -0.2324605
-0.559625 -0.2246475 -0.2424266
-0.2979797 -0.3455121 -0.2033905
-0.3252288 -0.3452765 -0.2060786
-0.25765 -0.3458685 -0.2033724
0.3977246 -0.5901382 0.4091196
0.3780828 -0.5989857 0.4091196
-0.2287273 -0.3444722 -0.2022456
0.3653489 -0.6005709 0.3981464
-0.1978223 -0.3425092 -0.2034429
-0.1876181 -0.3442297 -0.1938515
-0.1386599 -0.3419018 -0.2040626
-0.09436925 -0.3436767 -0.1969579
0.6800853 -0.1500807 -0.2143944
0.6788064 -0.226145 -0.2239365
0.6798392 -0.2038922 -0.1934716
0.6805989 -0.1011502 -0.229519
0.681013 -0.1368593 -0.203951
-0.691187 -0.09327221 -0.2007934
-0.7084609 -0.09769553 -0.2244469
-0.7101299 -0.09605908 -0.2164682
-0.6941211 -0.09864718 -0.2279891
-0.6747751 -0.09444559 -0.2029161
-0.6579637 -0.09590626 -0.2274544
-0.6572441 -0.09228718 -0.2034428
-0.6407691 -0.09232146 -0.2222613
-0.6400037 -0.08834553 -0.2009194
0.3310052 -0.6022824 0.4239011
-0.6261052 -0.08764541 -0.2204584
-0.6232129 -0.0835197 -0.2034428
-0.6061973 -0.07878256 -0.2204584
-0.6056133 -0.07860661 -0.2020427
-0.5891817 -0.07586849 -0.2034428
-0.5892068 -0.07664233 -0.221982
-0.5715455 -0.088009 -0.22548
-0.5712464 -0.08759779 -0.2034428
0.681702 -0.002193332 -0.2302271
0.6806621 -0.03494745 -0.2132942
0.6818043 -0.01277953 -0.1960138
0.6813861 0.04360527 -0.2318549
0.6821254 0.04714143 -0.2033896
0.6817492 0.03910434 -0.1833352
0.6800219 0.164654 -0.2203652
0.6800041 0.1144426 -0.2025923
0.6795568 0.1570802 -0.2008602
-0.5581341 -0.3101229 -0.1725543
-0.5381348 -0.3335339 -0.1864272
-0.5474229 -0.3271893 -0.1864272
0.4302214 -0.3779438 -0.1910127
0.435752 -0.3953248 -0.1932366
-0.09384371 -0.3464824 -0.1863101
-0.05262253 -0.3440526 -0.2024037
-0.06169732 -0.3471801 -0.1864272
-0.04237871 -0.3468116 -0.1864732
0.6530283 -0.5964051 0.3518311
0.6530037 -0.5961784 0.3812351
-0.001871914 -0.3441065 -0.193049
-0.02456959 -0.3471144 -0.1862158
0.01997134 -0.3462867 -0.1881432
0.6358396 -0.5978465 0.3719231
-0.01842867 -0.3416772 -0.2035582
0.0151426 -0.340457 -0.2034048
0.6187881 -0.598385 0.3613708
0.6006263 -0.5983939 0.3482301
0.04039649 -0.340232 -0.2034429
0.04039649 -0.3453385 -0.1887349
0.0702078 -0.3370201 -0.2034734
0.05741207 -0.3448327 -0.1872923
0.07808664 -0.3442098 -0.1862511
0.09144334 -0.3369719 -0.2034429
0.1084589 -0.3446963 -0.1872747
0.1084589 -0.339039 -0.2034429
0.1254746 -0.336843 -0.2034429
0.1451688 -0.3451675 -0.1877915
0.1424902 -0.3358722 -0.2034429
0.1629132 -0.3374571 -0.2035005
0.1873554 -0.3444061 -0.1958986
0.1595058 -0.3509916 -0.1864272
0.1934454 -0.3580642 -0.1853086
0.2152691 -0.3596392 -0.1856906
0.2092946 -0.3426644 -0.2013012
0.2290909 -0.3429515 -0.20137
0.5133055 -0.5989815 0.3716702
0.4998184 -0.5997701 0.3595317
0.4998184 -0.5947829 0.3750883
0.5331072 -0.5994214 0.3767591
0.5425008 -0.6001887 0.3642284
0.4836253 -0.5992782 0.3575806
0.4828027 -0.5903931 0.3750883
0.2465759 -0.361063 -0.1863123
0.4657871 -0.5979114 0.3580728
0.2617818 -0.3423684 -0.2005973
0.2615996 -0.3630855 -0.1865957
0.4657871 -0.5871208 0.3750883
0.28376 -0.3610632 -0.1881976
0.2971635 -0.341942 -0.2010919
0.4487714 -0.5862665 0.3750883
0.4487714 -0.5955939 0.3580728
0.4165196 -0.5994992 0.3584538
0.4317558 -0.5888778 0.3750883
0.4147403 -0.594692 0.3750883
0.401026 -0.6001415 0.3737146
0.3125719 -0.3612484 -0.1890903
0.3173555 -0.3444444 -0.1970601
0.3634057 -0.3611961 -0.190266
0.3466777 -0.3442048 -0.1976185
0.3658749 -0.3421821 -0.2007762
0.3410504 -0.3390202 -0.2036016
0.4512221 -0.3611079 -0.1918884
-0.1000779 -0.4717718 -0.1694784
-0.0787129 -0.472032 -0.1694116
-0.07941404 -0.4632859 -0.1763423
-0.04062645 -0.4744492 -0.1695121
-0.03807822 -0.4633076 -0.1791003
-0.1080598 -0.4462688 -0.17595
-0.04937939 -0.4462368 -0.180977
-0.004527569 -0.4632683 -0.1807643
-0.003681272 -0.4742824 -0.1693376
-0.02553104 -0.4462507 -0.1827938
0.02338079 -0.4633143 -0.182288
0.03036376 -0.4756463 -0.1693273
0.03830795 -0.4475162 -0.1847865
-0.08102642 -0.4126137 -0.1718713
-0.05270894 -0.4191654 -0.1763604
-0.06915896 -0.3973737 -0.1695323
-0.0221843 -0.4284484 -0.1816097
-0.02309205 -0.4098417 -0.1782042
-0.007699832 -0.4115734 -0.17974
0.0421574 -0.4308369 -0.1836682
0.0261807 -0.414188 -0.1808844
-0.01475379 -0.3782425 -0.1726224
0.01249234 -0.3792417 -0.1745653
0.05415152 -0.4634174 -0.1854994
0.05741207 -0.4772367 -0.1694116
0.05741207 -0.4462986 -0.185487
0.09100638 -0.476704 -0.1692835
0.0786138 -0.4634641 -0.1851903
0.08987366 -0.4464645 -0.1865264
0.1135991 -0.4625574 -0.186329
-0.5381184 -0.3329344 -0.2894709
0.1533153 -0.4767392 -0.1695326
0.08882298 -0.413483 -0.1834176
0.06225915 -0.3784479 -0.1766063
0.09260972 -0.378149 -0.1786283
-0.7006789 -0.08694613 -0.187001
-0.2478698 -0.4632492 -0.1693802
-0.2381941 -0.4763141 -0.1524182
-0.3376361 -0.4291441 -0.1670975
-0.3304033 -0.412001 -0.1639
-0.3134326 -0.4297103 -0.1672279
-0.3307386 -0.3948115 -0.1598516
-0.3492601 -0.3782631 -0.1566118
-0.3156146 -0.3780724 -0.1586449
-0.2746563 -0.420516 -0.1675797
0.2554652 -0.6046451 0.3532183
0.1846317 -0.6083312 0.3646823
0.2289579 -0.6043339 0.3841264
-0.2914193 -0.3954816 -0.1618969
-0.2787721 -0.3785434 -0.1607222
-0.1999622 -0.4649031 -0.1705914
-0.1977379 -0.4767131 -0.1527362
-0.1787064 -0.4696634 -0.1693648
-0.140782 -0.4696686 -0.1693885
-0.2102457 -0.4225899 -0.1700866
-0.24516 -0.4271696 -0.1694231
0.1929282 -0.6073036 0.3763243
0.1732068 -0.6078335 0.3816488
-0.1994402 -0.3959075 -0.1653365
-0.2009808 -0.3780824 -0.1637041
-0.1657079 -0.4144094 -0.1695763
-0.5513034 -0.2421111 0.2900103
-0.5474561 -0.2590897 0.2889216
-0.5506626 -0.2250955 0.2729947
-0.5544967 -0.2486593 0.2978634
-0.5549421 -0.2224029 0.273403
-0.113024 -0.394297 -0.1666856
-0.1526471 -0.3783338 -0.1644305
-0.105005 -0.3781779 -0.1650191
-0.5204118 -0.3610907 -0.1523438
-0.5381348 -0.3584791 -0.1517889
-0.5381348 -0.3442048 -0.1583424
-0.544514 -0.3442048 -0.1523959
-0.5549713 -0.3266407 -0.149601
-0.5585092 -0.3101736 -0.1523959
-0.5498719 -0.3271893 -0.1694116
-0.5381348 -0.3368733 -0.1694116
-0.5594493 -0.2901237 -0.1586618
0.6735743 -0.3672631 -0.1688623
0.6750359 -0.4062915 -0.1695049
0.6733328 -0.3442048 -0.1694117
0.6750717 -0.3241166 -0.1672771
0.6822418 -0.1661433 -0.1413904
0.6811579 -0.1705005 -0.1685205
0.6799541 -0.2272387 -0.1468094
0.6814713 -0.130174 -0.1833579
0.6827949 -0.1366613 -0.1370889
-0.6742598 -0.0836612 -0.1694116
-0.6567526 -0.0887056 -0.1760426
-0.6402285 -0.08224714 -0.1694116
-0.6217963 -0.07976526 -0.1689852
-0.5892252 -0.07331032 -0.1696511
-0.5673225 -0.08897054 -0.1694116
-0.572166 -0.08049595 -0.1694116
0.6813104 -0.0902158 -0.1652367
0.6811554 -0.05764413 -0.181541
-0.6775514 -0.071491 -0.1329973
-0.66475 -0.06562018 -0.1072689
0.2406098 -0.4768206 -0.0917514
0.17887 -0.4777308 -0.1013195
0.1969732 -0.4767451 -0.05996576
0.3151894 -0.4762994 -0.08797765
0.2977869 -0.4759872 -0.07128876
0.6530494 -0.4762161 -0.08974051
0.6355664 -0.4785218 -0.1271129
0.6362767 -0.4775962 -0.07289699
0.6785363 -0.427564 -0.05602795
0.6771198 -0.4469374 -0.06043679
0.6797853 -0.4455712 -0.001419783
0.6797781 -0.3618819 -0.06177184
0.683533 -0.2611305 -0.02537471
-0.6222066 -0.04802996 -0.0308122
-0.6389316 -0.05775481 -0.05678064
-0.6250616 -0.05675656 -0.03209984
-0.606191 -0.05493444 -0.0332948
-0.5891817 -0.06362689 -0.03328663
-0.5581614 -0.08897054 -0.03328663
-0.5665217 -0.07195485 -0.03328663
-0.572166 -0.06769109 -0.03328663
0.6840394 -0.0888024 -0.01757652
0.08511257 -0.6100864 0.2989315
0.04694717 -0.610746 0.2824711
0.03221683 -0.6114111 0.303838
-0.5551589 -0.3401701 -0.04674968
-0.5547283 -0.3385628 -0.02628961
-0.5552478 -0.3759693 -0.02452439
-0.5559197 -0.2846791 -0.03815308
-0.5573075 -0.2265768 -0.0471006
-0.5549454 -0.2524448 -0.003406465
-0.5553283 -0.1816106 -0.009833038
-0.5562879 -0.1982391 -0.0237208
-0.5550718 -0.1752709 -0.03306505
-0.5555739 -0.157239 -0.04732195
-0.5571139 -0.1408291 -0.04867277
-0.5557755 -0.1391163 -0.01840013
0.1691025 -0.4765308 -0.03852874
0.1047741 -0.4768293 -0.03179994
0.06520766 -0.4771972 -0.01133996
0.6841854 0.08024317 -0.004832774
0.6838861 0.0477953 -0.002678752
0.6840177 0.06268722 0.008519292
0.6874377 0.1347425 0.0001416504
0.6844266 0.1123141 -0.02083534
0.6868145 0.1523395 -0.01504621
-0.02758996 -0.6131372 0.292648
-0.04596323 -0.6128786 0.2923621
0.686211 0.1769307 0.01996398
0.6879255 0.1662638 -0.016271
0.3363945 -0.4755828 0.01424697
0.3082379 -0.4758261 -0.01702124
0.2909101 -0.4755356 0.007192373
0.5267514 -0.4737055 -0.00130263
0.4898033 -0.4742002 0.003517687
0.5292226 -0.4726931 0.01756907
0.5616444 -0.4749941 -0.03170535
0.5806097 -0.4732583 0.01930267
0.5924531 -0.4743857 0.002462655
0.6352932 -0.4755979 0.005626887
0.6529589 -0.4746006 0.01776028
0.6531991 -0.4742086 -0.002572596
0.6722513 -0.4653863 0.0001995564
0.6699746 -0.4705474 0.01776028
0.6771958 -0.4632078 0.02463788
0.6818718 -0.4465714 0.03310287
0.68709 -0.2976142 0.0462516
0.6882057 -0.2841917 0.07447143
0.6850027 -0.2795352 0.002150178
0.6877544 -0.2403969 0.04624635
0.6861017 -0.2323872 0.01659456
0.6873989 -0.2275537 0.04105556
-0.5531731 -0.2591267 0.307026
-0.5447897 -0.2837626 0.296445
-0.554482 -0.1030473 0.02271107
-0.5572248 -0.08735138 -0.001317292
-0.5555697 -0.0915345 0.03477591
-0.5626923 -0.07195485 0.01776034
-0.5703714 -0.06957436 0.03477591
-0.5817085 -0.05493927 0.01776034
-0.5885764 -0.0697636 0.03453532
-0.572166 -0.0615443 0.01776034
-0.5422444 -0.3164394 0.2930579
-0.5424502 -0.293158 0.2900103
-0.5439209 -0.3101736 0.307026
-0.5994771 -0.06278366 0.01312977
0.6847336 -0.07025146 0.0001893044
0.6855803 -0.08946562 0.02594
0.3701721 -0.4757738 0.05198914
0.3305705 -0.476018 0.04989815
0.6054125 0.3534358 0.05179143
0.6117733 0.3364202 0.03477585
0.6062921 0.3364202 0.05179143
0.6118594 0.3534358 0.03477585
0.6075787 0.3704513 0.05179143
0.6189277 0.3696012 0.03563786
-0.5419642 -0.3271893 0.307026
-0.5427096 -0.3442048 0.2900103
