-0.6394342 -0.9071658 0.2404144
-0.7434871 -0.9060333 0.1315438
-0.7310277 -0.9038693 0.240428
-0.5529771 -0.9099338 0.365581
-0.4818533 -0.9101576 0.4276505
-0.6354276 -0.907077 0.3861578
-0.1367787 -0.9166977 0.2556176
-0.02802604 -0.9146384 0.2060773
-0.09830946 -0.914278 0.2522321
-0.1775449 -0.9161762 0.2687171
-0.1979024 -0.9135484 0.4032791
-0.1621972 -0.9156322 0.3414819
-0.8181691 -0.9046792 0.1400585
-0.7677009 -0.9043697 0.2254405
-0.5157987 -0.9092457 0.399533
-0.4077584 -0.910315 0.4415803
-0.3713373 -0.9094467 0.4215789
-0.3195189 -0.9125152 0.4168241
-0.6771727 -0.9070082 0.3759487
-0.06853205 -0.9151859 0.2347038
-0.1645282 -0.9158115 0.3175852
-0.2451895 -0.9125885 0.4326658
-0.8081413 -0.9050939 0.1766467
-0.8025539 -0.9028373 0.2668993
-0.723374 -0.9040275 0.2941172
-0.5419198 -0.9088471 0.4487364
-0.4567702 -0.909404 0.4502089
-0.2708976 -0.9124262 0.4694161
-0.7344638 -0.9041828 0.3761332
-0.6683021 -0.9062374 0.4182248
-0.08326215 -0.9143828 0.2913477
-0.01344097 -0.9142466 0.2427495
-0.02874577 -0.9148082 0.2829471
-0.173384 -0.9145194 0.3976326
-0.202011 -0.9116023 0.4535487
-0.1222215 -0.9135582 0.393872
-0.8723545 -0.8998792 0.1821411
-0.8664958 -0.9002945 0.2021198
-0.5155441 -0.9071583 0.4898605
-0.4783233 -0.9054483 0.4856884
-0.4301606 -0.9078486 0.4847231
-0.3573335 -0.908947 0.4653692
-0.3228402 -0.9104308 0.4648805
-0.6290223 -0.9073083 0.4895315
-0.1548122 -0.909021 0.4387815
-0.2114638 -0.9141393 0.4765122
-0.8820868 -0.9011126 0.1518893
-0.8190607 -0.9014729 0.3127477
-0.8581558 -0.8998804 0.2381523
-0.795016 -0.9037896 0.3662884
-0.5611689 -0.9077406 0.4786766
-0.4540401 -0.9026551 0.4779091
-0.3786508 -0.9102534 0.5008125
-0.2520434 -0.9134337 0.5072198
-0.7090331 -0.9040928 0.4545004
-0.06228441 -0.9148276 0.3315697
-0.132973 -0.9107664 0.4184351
-0.1612856 -0.9111459 0.4745591
-0.907681 -0.9011 0.19907
-0.8514432 -0.8998085 0.3438518
-0.781628 -0.9037211 0.4107208
-0.5329545 -0.9011546 0.5137758
-0.4970562 -0.9074415 0.5143332
-0.4598189 -0.9026203 0.5001812
-0.4357038 -0.9089482 0.5076776
-0.2533083 -0.9155363 0.5527654
-0.6425129 -0.9088647 0.5789282
-0.5987788 -0.9079129 0.5422466
0.004271805 -0.9165684 0.3136482
-0.09195977 -0.9133621 0.4739118
-0.08536446 -0.9146237 0.391067
-0.2141401 -0.9134437 0.5451305
-0.1722166 -0.911919 0.5122547
-0.129377 -0.9115057 0.4645138
-0.9181821 -0.9003885 0.1514613
-0.8402711 -0.9008052 0.3657217
-0.9270837 -0.8999318 0.2753601
-0.5563977 -0.905941 0.5089037
-0.4093924 -0.910732 0.5475829
-0.3178184 -0.9123744 0.5410657
-0.7412502 -0.9035685 0.4683306
-0.702641 -0.9066139 0.600003
-0.1292373 -0.910933 0.5467551
-0.9507372 -0.8970486 0.1756713
-0.8836859 -0.9000608 0.3840086
-0.9222956 -0.8984798 0.3456895
-0.973431 -0.897482 0.2372096
-0.8113882 -0.9019147 0.4207833
-0.5587536 -0.9087374 0.5523365
-0.5158848 -0.9068502 0.5352478
-0.4692466 -0.909229 0.5232615
-0.7840241 -0.8991339 0.4635437
-0.6228228 -0.909151 0.6369076
-1.00735 -0.898223 0.2962766
-0.7389751 -0.9042324 0.504041
-0.5555159 -0.9111025 0.6601777
-0.9865968 -0.8941474 0.1993339
-0.8482275 -0.9020467 0.4247127
-0.964445 -0.8975464 0.3835852
-0.9754377 -0.8979394 0.3354106
-1.026113 -0.8951081 0.2512259
-0.8176781 -0.8997977 0.4550669
-0.5015784 -0.9094207 0.5844221
-0.8140122 -0.9000524 0.5225511
-0.7739579 -0.9031891 0.5606387
-0.887965 -0.9004821 0.460804
-1.025957 -0.8983078 0.3474412
-1.094167 -0.8944286 0.2980382
-0.797126 -0.9046961 0.6404984
-1.028666 -0.8943646 0.2130594
-0.9066693 -0.9006011 0.4890053
-1.006732 -0.8976618 0.4758172
-1.085688 -0.8936591 0.2590518
-0.806983 -0.9002917 0.5550206
-0.8490484 -0.9005833 0.5905128
-0.8515268 -0.9004287 0.5525153
-0.8600032 -0.9002372 0.6305835
-1.067413 -0.894013 0.2073438
-0.4427013 -0.1810295 0.785983
-0.4178039 -0.1736307 0.7963427
-0.4126758 -0.1854781 0.7765785
-0.3760049 -0.1844307 0.7795486
0.2274151 -0.9137574 0.6707621
0.2306936 -0.9129367 0.6754634
0.2221759 -0.913043 0.6007551
0.202629 -0.9146178 0.6294503
0.2366972 -0.9124099 0.7281203
0.2191874 -0.9148896 0.5745434
0.188969 -0.9123657 0.7403232
0.2462427 -0.9112564 0.8118433
0.2281868 -0.9133124 0.796353
0.2515006 -0.9086002 0.8579605
0.1765562 -0.9135823 0.5980403
0.1649768 -0.9135627 0.7033401
0.2381231 -0.9134929 0.7406273
0.2454211 -0.9100076 0.8472097
0.1202675 -0.9130211 0.6025426
0.1606839 -0.914377 0.5637925
0.1251239 -0.9135358 0.6327322
0.1031154 -0.9128346 0.8251132
0.2148043 -0.9160672 0.5360989
0.1986124 -0.9125739 0.8274635
0.206706 -0.915377 0.4650694
0.1641322 -0.9143152 0.5141773
0.1105333 -0.9127561 0.6979617
0.1485246 -0.912137 0.8091499
0.1763063 -0.9087973 0.914655
0.1775906 -0.9140627 0.4587953
0.0821026 -0.9114687 0.6101923
0.09654301 -0.9139249 0.5161428
0.0511933 -0.9122504 0.6510427
0.1217099 -0.9094197 0.8827673
0.07753986 -0.9113679 0.7548147
0.1593169 -0.9144824 0.4049363
0.04232842 -0.9137876 0.5797696
-0.001072884 -0.9106988 0.7570776
0.03936762 -0.9104583 0.8591603
0.09470105 -0.9143642 0.413048
0.05470335 -0.9146321 0.5368567
0.01287502 -0.9124074 0.6567428
0.07427198 -0.9093245 0.8885536
0.01106679 -0.9152045 0.4371085
-0.00550431 -0.9136391 0.5703237
-0.02828562 -0.9113109 0.6237624
-0.04654998 -0.9112737 0.7319162
0.01902092 -0.9073207 0.9213154
0.09786516 -0.9090995 0.9427245
0.01599687 -0.9110821 0.854709
0.06230444 -0.9133128 0.3989754
-0.00832057 -0.9139212 0.4855158
-0.06799459 -0.9119625 0.6675401
-0.05051506 -0.9093238 0.8678806
0.08258516 -0.9162157 0.3437946
0.01300639 -0.9146271 0.4047759
-0.03343284 -0.9139595 0.5850282
-0.05055881 -0.9129571 0.4281821
-0.05830652 -0.9141645 0.5002346
-0.08494198 -0.9133934 0.572984
-0.1305307 -0.9104283 0.6894963
-0.08195144 -0.9106342 0.7581627
0.02234989 -0.9167333 0.3634846
-0.1361495 -0.910428 0.6070454
-0.140967 -0.9066529 0.6497989
-0.09922433 -0.9101195 0.8249658
-0.04292995 -0.9070001 0.9067743
-0.0199852 -0.9156195 0.3643866
-0.1618528 -0.9066252 0.7364439
-0.1658661 -0.9073232 0.6770332
-0.1509098 -0.9082327 0.8111533
-0.1514524 -0.909085 0.5579407
-0.1846945 -0.9122461 0.5943456
-0.1957693 -0.9099177 0.6381071
-0.171221 -0.9081305 0.8599075
-0.101779 -0.9094428 0.8899994
-0.1838976 -0.9078096 0.7149019
-0.1753341 -0.9074427 0.7852048
-0.1933948 -0.9029117 0.6643956
-0.1737468 -0.9076804 0.8229624
-0.1312112 -0.9080442 0.9202282
-0.2282019 -0.9160857 0.6080618
-0.2043422 -0.9051729 0.6830606
-0.2156671 -0.9055431 0.6586168
-0.1893022 -0.9025722 0.831859
-0.2382241 -0.9150674 0.6282511
-0.2116482 -0.912389 0.7085477
-0.2178 -0.9148806 0.7524152
-0.2057956 -0.9031785 0.8038079
-0.2379394 -0.9045329 0.6528378
-0.2122001 -0.8980283 0.8284913
-0.1950271 -0.8967094 0.8540924
-0.3076985 -0.9142469 0.5824201
-0.2796648 -0.9161962 0.6177707
-0.2437183 -0.9048285 0.6751101
-0.2208356 -0.9145017 0.7761517
-0.2602117 -0.9078863 0.647059
-0.2719428 -0.9120336 0.6927313
-0.2332163 -0.9150484 0.7261559
-0.2445614 -0.9143894 0.7699782
-0.2280679 -0.908864 0.7980291
-0.2348611 -0.8985748 0.8242104
-0.3569103 -0.9147257 0.643245
-0.3280382 -0.9138426 0.6317353
-0.2827335 -0.912686 0.6409566
-0.2659906 -0.9079638 0.6693313
-0.3024612 -0.9135646 0.7120168
-0.2805565 -0.9137641 0.7765399
-0.2388499 -0.8779323 0.8439542
-0.3607276 -0.9136298 0.5774493
-0.2882628 -0.9041541 0.6635525
-0.2503402 -0.9139042 0.7922502
-0.2604087 -0.8978262 0.8395499
-0.215823 -0.872403 0.8482977
-0.3736332 -0.9114168 0.6761715
-0.4031426 -0.9139979 0.6449575
-0.3105351 -0.9053497 0.6577735
-0.2997105 -0.9045941 0.6775496
-0.3196314 -0.9126272 0.7513434
-0.2561191 -0.9088902 0.8145225
-0.2645513 -0.8737259 0.8470211
-0.2446724 -0.8489132 0.8620242
-0.3461151 -0.9131036 0.69794
-0.3384264 -0.9023166 0.77013
-0.2783914 -0.9096215 0.8087436
-0.2848069 -0.898859 0.8334696
-0.2671167 -0.8480768 0.8569082
-0.2249036 -0.8513 0.8701651
-0.426093 -0.9117159 0.7021497
-0.456597 -0.9120054 0.5823255
-0.3670819 -0.9129533 0.7394205
-0.3044525 -0.9042323 0.8010908
-0.2877356 -0.8737259 0.8447571
-0.289321 -0.8469138 0.8508674
-0.2511834 -0.8430898 0.8871182
-0.2303803 -0.8515272 0.8925158
-0.4065016 -0.9123178 0.7483346
-0.4470212 -0.9137249 0.6473227
-0.3714812 -0.9093194 0.7588128
-0.3126076 -0.9022257 0.8220921
-0.3122214 -0.8889723 0.8475093
-0.2920307 -0.8269728 0.8757366
-0.4701998 -0.9084396 0.718518
-0.4912859 -0.9118857 0.6600933
-0.3674805 -0.900691 0.7856282
-0.3517568 -0.8974732 0.8166461
-0.3312762 -0.8954144 0.8394821
-0.3040793 -0.8737259 0.8496219
-0.3179953 -0.8278251 0.8703972
-0.2792345 -0.8415647 0.9036115
-0.2572441 -0.8508058 0.9090762
-0.443758 -0.9104464 0.7428685
-0.3897528 -0.9002733 0.7798493
-0.3142734 -0.8737259 0.8554183
-0.3015068 -0.8215415 0.8978328
-0.312449 -0.8500015 0.8465915
-0.2918859 -0.8277063 0.900329
-0.4788417 -0.9031682 0.7567339
-0.4120251 -0.9081783 0.7740705
-0.5060498 -0.9112613 0.6783595
-0.3781893 -0.8976187 0.8105116
-0.356766 -0.891351 0.8359516
-0.3400505 -0.8730263 0.8641106
-0.3237791 -0.8145556 0.8920538
-0.3402725 -0.8391197 0.8640027
-0.4565694 -0.9025533 0.7625128
-0.5072263 -0.9079219 0.7399907
-0.4342971 -0.9108481 0.7682916
-0.4895563 -0.9094894 0.7064108
-0.528322 -0.911025 0.6725807
-0.4207969 -0.9060885 0.8094099
-0.3491333 -0.8508183 0.8617812
-0.3086757 -0.8277063 0.9163705
-0.3363911 -0.8277063 0.8887815
-0.4664543 -0.9001746 0.8030415
-0.4859695 -0.9017049 0.7995505
-0.440076 -0.9058826 0.7905639
-0.5118286 -0.9016671 0.7006319
-0.5374982 -0.9088417 0.7083651
-0.4022217 -0.8984866 0.827687
-0.3625448 -0.8845239 0.8582239
-0.3470545 -0.8475283 0.8901414
-0.5148488 -0.9076047 0.7831918
-0.5176074 -0.9072711 0.722904
-0.5615206 -0.9107598 0.6996312
-0.3848171 -0.8876073 0.852445
-0.4289533 -0.8957989 0.8393136
-0.3645736 -0.8737259 0.8660431
-0.3497172 -0.8277063 0.9090955
-0.3661378 -0.8507161 0.8720716
-0.4737737 -0.89675 0.829412
-0.5394851 -0.9118032 0.7752309
-0.5148693 -0.9068251 0.8188698
-0.5502385 -0.9119035 0.7375768
-0.4507062 -0.8952602 0.8315339
-0.4070894 -0.8880889 0.8466661
-0.3683237 -0.8458571 0.8804961
-0.5435344 -0.9090855 0.8090854
-0.3886092 -0.8737259 0.8670603
-0.4342694 -0.8768437 0.86559
-0.3894727 -0.8507161 0.8703884
-0.4786202 -0.8864744 0.8506519
-0.5013219 -0.8973567 0.8481752
-0.6198111 -0.9108962 0.7650155
-0.5294209 -0.9053671 0.837955
-0.3911114 -0.832086 0.876704
-0.5822215 -0.9049932 0.826244
-0.6654345 -0.9089956 0.7747877
-0.4113588 -0.8565656 0.8701558
-0.4630101 -0.8670224 0.8786268
-0.5146779 -0.8758411 0.868973
-0.5308555 -0.8956591 0.8551491
-0.6411498 -0.9089276 0.7834717
-0.5614546 -0.896709 0.8543637
-0.6574875 -0.9072874 0.6615183
-0.4382945 -0.8507161 0.8753153
-0.4518718 -0.8507161 0.8825901
-0.4848155 -0.869939 0.8716365
-0.6290553 -0.9020735 0.8353887
-0.6017808 -0.8951281 0.8640796
-0.6764712 -0.906679 0.8245345
-0.7208163 -0.9058627 0.6738486
-0.4126631 -0.8269548 0.8687599
-0.4875037 -0.8507161 0.8817365
-0.5104131 -0.8507851 0.8807788
-0.5784305 -0.8784673 0.8776402
-0.7192422 -0.9078487 0.8108552
-0.7384773 -0.9064486 0.7832855
-0.4449967 -0.8276988 0.8816906
-0.626803 -0.8965077 0.8608053
-0.6703048 -0.8979026 0.8533225
-0.6058474 -0.8677752 0.8866916
-0.7052049 -0.9043049 0.8402148
-0.7809138 -0.9045583 0.754553
-0.4159442 -0.8046966 0.8807937
-0.464323 -0.8277063 0.8840142
-0.5605136 -0.8507161 0.8882686
-0.6281478 -0.8744171 0.8849701
-0.5891665 -0.8529699 0.8897949
-0.7560012 -0.9057186 0.8282753
-0.7871727 -0.9045814 0.8173765
-0.7737101 -0.903096 0.6828454
-0.770974 -0.9043601 0.7744166
-0.439573 -0.809544 0.8866777
-0.4652074 -0.8046966 0.8874227
-0.5323603 -0.8277063 0.8878554
-0.6575209 -0.8864151 0.8774821
-0.6996849 -0.8964996 0.8646363
-0.6134901 -0.8248496 0.9092084
-0.6561001 -0.8509967 0.9021479
-0.7366131 -0.8973119 0.861096
-0.8242707 -0.9032108 0.6633282
-0.8062684 -0.9024246 0.7080499
-0.3942376 -0.8046966 0.8887527
-0.4186471 -0.7927511 0.8912107
-0.5623127 -0.8277063 0.8952023
-0.5841112 -0.8286235 0.8961653
-0.6647384 -0.8729889 0.8912305
-0.6325335 -0.8292809 0.9078206
-0.7707825 -0.9018623 0.8458886
-0.876704 -0.9007363 0.777859
-0.8242884 -0.9003565 0.7136548
-0.3963748 -0.7965155 0.8969896
-0.4440432 -0.7816868 0.8974713
-0.5341146 -0.8046966 0.885585
-0.7066274 -0.8758048 0.8925918
-0.7255232 -0.8866184 0.8829025
-0.619967 -0.8112942 0.9340667
-0.5918674 -0.8047 0.9175813
-0.6858938 -0.8399631 0.9165251
-0.6636341 -0.8280776 0.9227321
-0.812674 -0.9038545 0.8323809
-0.7712828 -0.8950641 0.8668329
-0.8456041 -0.9003962 0.7088684
-0.8693113 -0.9020675 0.6928936
-0.8897238 -0.900041 0.7327197
-0.3835044 -0.8046966 0.900329
-0.468468 -0.7800078 0.8999895
-0.5644521 -0.8046966 0.8998526
-0.7477954 -0.8941824 0.8771236
-0.7926325 -0.8964958 0.8639271
-0.4466982 -0.7759917 0.9077041
-0.535408 -0.7797235 0.8853229
-0.7404853 -0.8490815 0.9230697
-0.5742344 -0.7816868 0.9263976
-0.6925363 -0.8310258 0.9390048
-0.8146123 -0.9017179 0.8597871
-0.7901236 -0.8894086 0.8901206
-0.7515842 -0.8745891 0.9019986
-0.9059433 -0.8998796 0.7084237
-0.5643589 -0.7805548 0.9004619
-0.5098233 -0.7816868 0.87614
-0.7148086 -0.8327096 0.9332259
-0.5587857 -0.7586772 0.9023932
-0.5105118 -0.7586772 0.8787935
-0.7428597 -0.8349037 0.9497193
-0.5689736 -0.7595655 0.9235215
-0.5370095 -0.7586772 0.8827373
-0.4881941 -0.7816868 0.8843974
-0.5497976 -0.7820078 0.9386559
-0.5607885 -0.7356675 0.9256452
-0.5358841 -0.7353011 0.8844866
-0.4917861 -0.7591803 0.8970085
-0.5507947 -0.7356675 0.9499823
-0.5585321 -0.7356675 0.902459
-0.5128273 -0.7344737 0.8902783
-0.5694867 -0.7103003 0.9230438
-0.5373144 -0.7126577 0.8904748
-0.5147004 -0.7126577 0.894937
-0.5682843 -0.6939508 0.8982962
-0.5816999 -0.6666381 0.9202194
-0.5695554 -0.646114 0.8996708
-0.579971 -0.6263983 0.921084
-0.5608524 -0.6611843 0.8924881
-0.5646815 -0.6206186 0.8974977
-0.5616806 -0.6896479 0.8927661
-0.5764301 -0.5976088 0.9215868
-0.5641822 -0.5889968 0.9001502
-0.5692067 -0.5736556 0.9207342
-0.5503512 -0.5515893 0.9045817
-0.5378341 -0.6896479 0.8924781
-0.3741149 -0.1730009 0.8070678
-0.4448089 -0.1703433 0.8137343
-0.3336635 -0.1748027 0.7949487
-0.3810784 -0.1708496 0.8328049
-0.3334498 -0.1845362 0.770146
-0.3394178 -0.1721684 0.8151563
-0.4609532 -0.1840957 0.7873311
-0.412201 -0.1698436 0.87998
-0.2936447 -0.1762239 0.7809973
-0.2810157 -0.1722064 0.8047978
-0.4883908 -0.1755354 0.7996628
-0.3298789 -0.17125 0.8779076
-0.4843068 -0.1681064 0.8865292
-0.2726838 -0.1843114 0.7635745
-0.4742586 -0.1687972 0.8292602
-0.3925458 -0.1718187 0.9633137
-0.2503402 -0.173723 0.7922502
-0.5406923 -0.1681581 0.8132133
-0.4769259 -0.1702431 0.9599233
-0.5600001 -0.1670298 0.8283406
-0.2756133 -0.1740679 0.9487503
-0.5515376 -0.1674437 0.9032756
-0.4427231 -0.1710126 1.020336
-0.2958611 -0.1742265 1.042367
-0.5629951 -0.1712267 0.8062142
-0.6019768 -0.1672832 0.9853572
-0.5536327 -0.1681403 1.032593
-0.5925691 -0.1663895 0.8256563
-0.6921718 -0.1640545 0.9303378
-0.4925406 -0.1697972 1.10116
-0.3855196 -0.1723339 1.113491
-0.6358237 -0.1652625 0.8918362
-0.6314201 -0.1668635 1.100121
-0.6974047 -0.1645241 1.044389
-0.5669388 -0.1683957 1.091664
-0.3311049 -0.1729625 1.11455
-0.6458433 -0.1667934 0.8363413
-0.7407712 -0.1632553 0.9510924
-0.7380205 -0.1621222 0.876731
-0.499428 -0.1691975 1.155113
-0.3996942 -0.1702996 1.16547
-0.2789572 -0.1743995 1.109894
-0.3058416 -0.1719458 1.177744
-0.6950308 -0.1654736 0.8462631
-0.6215884 -0.1712081 0.8154141
-0.6878969 -0.1648878 1.108871
-0.6350033 -0.1653674 1.155272
-0.8065249 -0.1601976 0.9076184
-0.8457311 -0.1586643 0.9989946
-0.6740097 -0.1700502 0.8258318
-0.7312719 -0.1629226 1.062742
-0.8651593 -0.156931 0.9650126
-0.7147999 -0.165711 0.8406144
-0.7774562 -0.1633801 0.8658202
-0.4242159 -0.1697074 1.210809
-0.719291 -0.1623268 1.123899
-0.8787017 -0.1561593 0.920563
-0.8146123 -0.163007 0.8597871
-0.8901427 -0.1609442 0.9741668
-0.8516135 -0.1587247 0.8776103
-0.7803618 -0.1678761 0.8450358
-0.9021163 -0.1605082 0.9198639
-0.8939369 -0.1593951 0.8842146
-0.7502784 -0.1731455 0.8298091
-0.8088334 -0.1703644 0.8375148
-0.8368846 -0.1654799 0.8540082
-0.9112051 -0.181286 0.9635922
-0.8651187 -0.1603805 0.8700713
-0.915723 -0.1834331 0.9048675
-0.9190245 -0.1834331 0.9277827
-0.887208 -0.1666787 0.8647227
-0.8591568 -0.1704078 0.8482293
-0.9143568 -0.1834331 0.8814503
-0.9044486 -0.1834331 0.8602494
-0.9159671 -0.205293 0.9069815
-0.9139407 -0.2064428 0.8815583
-0.356169 -0.8737724 2.024691
-0.3734253 -0.8804971 2.003885
-0.3842202 -0.8786733 2.041184
-0.3581583 -0.8752329 2.049955
-0.3949382 -0.8755627 2.064613
-0.3338968 -0.8745074 2.030469
-0.3252634 -0.8767388 2.003012
-0.180974 -0.1814315 0.793979
-0.1719657 -0.1923401 0.7650424
-0.1944681 -0.183992 0.7601503
-0.2016934 -0.175667 0.7784531
-0.3735056 -0.8823516 2.091507
-0.3454545 -0.8740413 2.075014
-0.3512333 -0.8809557 2.097286
-0.3136738 -0.8802162 2.057135
-0.1797849 -0.852597 2.095307
-0.159379 -0.8507161 2.090807
-0.1754775 -0.8767612 2.075548
-0.1564416 -0.828871 2.100903
-0.164047 -0.188125 0.8101747
-0.149257 -0.2059314 0.7705045
-0.164741 -0.2060413 0.742756
-0.1877371 -0.2030888 0.7342086
-0.2170281 -0.1845653 0.7554804
-0.3817162 -0.876447 2.116979
-0.3990226 -0.8737259 2.098234
-0.4015568 -0.8682067 2.108001
-0.4050217 -0.8507161 2.121355
-0.3575371 -0.8716013 2.118864
-0.3410346 -0.8737259 2.099932
-0.323767 -0.8748745 2.083046
-0.2176818 -0.873255 2.080242
-0.2060421 -0.8653481 2.087415
-0.208469 -0.8507161 2.096768
-0.201609 -0.8277229 2.104866
-0.1340707 -0.2083827 0.8057293
-0.1690373 -0.1841483 0.8490229
-0.1447577 -0.1960804 0.8434167
-0.1303576 -0.2081522 0.8575854
-0.1305251 -0.2294526 0.7789354
-0.1160244 -0.2294526 0.8033289
-0.1482685 -0.2294526 0.7504574
-0.1642938 -0.2294526 0.7354741
-0.186121 -0.2294526 0.7279799
-0.2110995 -0.2064428 0.7310053
-0.2363898 -0.1868944 0.7511604
-0.2349941 -0.2064428 0.7331046
-0.2726838 -0.1843114 0.7635745
-0.2708115 -0.2058101 0.7403922
-0.3113783 -0.195864 0.7526416
-0.3334498 -0.1845362 0.770146
-0.3617016 -0.1954165 0.7633559
-0.3760049 -0.1844307 0.7795486
-0.3845017 -0.8509032 2.13631
-0.4052949 -0.8288082 2.131397
-0.3584331 -0.8507161 2.125035
-0.344427 -0.8507161 2.122824
-0.3319172 -0.850036 2.115649
-0.3035703 -0.8518395 2.110919
-0.3012765 -0.8737259 2.086318
-0.2778424 -0.8710114 2.089286
-0.2533253 -0.8737259 2.086412
-0.2552904 -0.8560963 2.103152
-0.2349733 -0.8461823 2.103042
-0.2383396 -0.8274536 2.108577
-0.1652997 -0.1826543 0.9219538
-0.147963 -0.1837816 0.972779
-0.128393 -0.207315 0.9080263
-0.1227671 -0.2062882 0.9437371
-0.09988177 -0.2280951 0.9492205
-0.1139199 -0.2298226 0.9029729
-0.1176093 -0.2294526 0.8742325
-0.1200963 -0.2245071 0.8498155
-0.1160833 -0.2340416 0.8258383
-0.1215751 -0.2524624 0.8018887
-0.1308364 -0.2524624 0.7786131
-0.1463192 -0.2524624 0.7578166
-0.1664966 -0.2510151 0.7439638
-0.1919106 -0.2511689 0.7367704
-0.2117675 -0.2309023 0.7307048
-0.2601718 -0.2299334 0.7346286
-0.3288513 -0.2062294 0.7500702
-0.4126758 -0.1854781 0.7765785
-0.3702987 -0.2054912 0.7560831
-0.4079268 -0.2064428 0.7582754
-0.4342971 -0.1948326 0.7682916
-0.4427013 -0.1810295 0.785983
-0.3811207 -0.8277063 2.120857
-0.3542273 -0.8277063 2.120973
-0.333764 -0.8277063 2.121576
-0.3097861 -0.8277063 2.120782
-0.279324 -0.8288479 2.116505
-0.1143312 -0.2039688 0.9747416
-0.1127771 -0.2009629 1.002136
-0.08398259 -0.2284544 0.9769853
-0.1020346 -0.2537543 0.9315748
-0.1140428 -0.2514223 0.8887281
-0.1166692 -0.2523441 0.8328069
-0.1323102 -0.2768531 0.8040951
-0.1614595 -0.2765759 0.7672534
-0.1925227 -0.2754722 0.7526525
-0.2099113 -0.2768085 0.7499416
-0.2496566 -0.2754257 0.7474455
-0.260712 -0.2546472 0.7383718
-0.311479 -0.2297856 0.7447008
-0.3717002 -0.2307596 0.7540497
-0.4074501 -0.2294526 0.7564379
-0.4329972 -0.2090097 0.7653316
-0.4534632 -0.2064428 0.7649285
-0.4609532 -0.1840957 0.7873311
-0.5629951 -0.1712267 0.8062142
-0.5844464 -0.180028 0.7972709
-0.5925691 -0.1663895 0.8256563
-0.6215884 -0.1712081 0.8154141
-0.6076739 -0.1834331 0.7945355
-0.3599254 -0.8046966 2.130786
-0.3840982 -0.8050648 2.136869
-0.3678467 -0.780699 2.140892
-0.3605169 -0.7816868 2.133066
-0.3352188 -0.8046966 2.125006
-0.3123505 -0.8036637 2.130665
-0.08133507 -0.2529366 0.9861741
-0.08042365 -0.2299552 1.007061
-0.09918201 -0.2072331 1.027557
-0.09903872 -0.2754722 0.9482303
-0.1152315 -0.2764412 0.904994
-0.1175497 -0.2972405 0.9217913
-0.1237019 -0.2758074 0.8640442
-0.1396528 -0.2902105 0.8227321
-0.1835234 -0.3134079 0.8095868
-0.2280679 -0.3213391 0.7980291
-0.2726125 -0.318831 0.7864714
-0.3059874 -0.275692 0.7536958
-0.3187466 -0.2524545 0.7485126
-0.3772852 -0.2525329 0.7589087
-0.4125842 -0.2749626 0.7749982
-0.431115 -0.2546189 0.7730396
-0.47781 -0.2071023 0.7703419
-0.480226 -0.2363248 0.7802402
-0.5018489 -0.1848576 0.7851701
-0.4883908 -0.1755354 0.7996628
-0.5406923 -0.1681581 0.8132133
-0.5432112 -0.1825926 0.7863877
-0.5768091 -0.2073309 0.7857509
-0.5322221 -0.2064428 0.7792304
-0.607241 -0.208801 0.7917928
-0.6258029 -0.2064428 0.7907841
-0.6406036 -0.1828626 0.8029385
-0.6740097 -0.1700502 0.8258318
-0.6556069 -0.2064428 0.7966754
-0.6943347 -0.1817951 0.8121283
-0.7147999 -0.165711 0.8406144
-0.7502784 -0.1731455 0.8298091
-0.3701572 -0.7356675 2.13992
-0.3580777 -0.7356675 2.117173
-0.3570689 -0.7588892 2.119313
-0.3344693 -0.7812319 2.125495
-0.3150891 -0.7816868 2.14122
-0.3168098 -0.7586772 2.152022
-0.08448058 -0.2769724 0.9924681
-0.1327574 -0.1850877 1.060927
-0.09636545 -0.2042825 1.064979
-0.07365954 -0.2541376 1.027966
-0.07802922 -0.2268652 1.050904
-0.07440084 -0.2338486 1.029189
-0.1214783 -0.3214915 0.959751
-0.09612054 -0.3120456 1.022438
-0.1389584 -0.3214915 0.9162365
-0.1539681 -0.3214915 0.8789146
-0.1873162 -0.3214915 0.8242048
-0.2281308 -0.3214915 0.7982713
-0.2724123 -0.3260292 0.7933376
-0.3058461 -0.3310866 0.7971448
-0.2723807 -0.3425801 0.8127173
-0.3171571 -0.3037279 0.7749135
-0.366822 -0.2751415 0.7651017
-0.4178039 -0.3111339 0.7963427
-0.4592928 -0.2755663 0.7874755
-0.505679 -0.2062024 0.7737651
-0.5345197 -0.2308078 0.7825046
-0.5507073 -0.2218667 0.7840353
-0.5970222 -0.2311206 0.7980412
-0.6103905 -0.2524624 0.8056436
-0.631808 -0.2294526 0.7965705
-0.655249 -0.2283359 0.8070381
-0.6851078 -0.2054181 0.7988964
-0.7330763 -0.1861423 0.8139738
-0.7803618 -0.1678761 0.8450358
-0.7789683 -0.1834185 0.8207117
-0.8030546 -0.1960745 0.8152425
-0.8045398 -0.1834331 0.820967
-0.8088334 -0.1703644 0.8375148
-0.2084355 -0.2294526 1.89662
-0.2001318 -0.2294526 1.881399
-0.2043558 -0.2268758 1.897679
-0.3699203 -0.6900753 2.116132
-0.3542865 -0.7126577 2.109054
-0.3743606 -0.6996505 2.137501
-0.351594 -0.6818607 2.098413
-0.3318183 -0.7248465 2.114388
-0.319957 -0.7390448 2.12944
-0.3152014 -0.7372744 2.175791
-0.3172176 -0.6938276 2.177489
-0.107645 -0.1820244 1.175447
-0.09843928 -0.1862618 1.187866
-0.09460127 -0.206275 1.109892
-0.07797295 -0.2758717 1.050952
-0.07166541 -0.2294992 1.092303
-0.07335198 -0.2289145 1.119361
-0.07401884 -0.2518011 1.055752
-0.1006562 -0.3214915 1.039919
-0.07203752 -0.2754722 1.100002
-0.1312372 -0.3381143 0.9732077
-0.1594771 -0.3431983 0.9188633
-0.1954238 -0.33887 0.8530054
-0.2379825 -0.3360783 0.8155392
-0.2502392 -0.3535192 0.8373477
-0.2792804 -0.3648136 0.8438741
-0.305475 -0.3545412 0.8237108
-0.3164198 -0.3758911 0.8539703
-0.3402346 -0.3472575 0.8157971
-0.3702785 -0.3214915 0.7964119
-0.4888504 -0.3214915 0.8170651
-0.5216702 -0.2762181 0.7967759
-0.5748204 -0.2756093 0.8069865
-0.6326428 -0.2699839 0.8152171
-0.6600456 -0.2524624 0.8137827
-0.6825129 -0.2278566 0.8005161
-0.7326985 -0.2313667 0.8091793
-0.7389766 -0.2069249 0.8060763
-0.7781671 -0.2064428 0.8109422
-0.8268785 -0.2070526 0.815744
-0.8345386 -0.1819471 0.8292651
-0.8368846 -0.1654799 0.8540082
-0.8591568 -0.1704078 0.8482293
-0.85612 -0.1834331 0.836525
-0.8804235 -0.1842785 0.8432232
-0.887208 -0.1666787 0.8647227
0.02790266 -0.1603237 2.195332
0.04486686 -0.1822684 2.174115
0.01479137 -0.1586016 2.168485
-0.1087536 -0.1834331 2.262166
-0.08521736 -0.1834331 2.261242
-0.1098706 -0.1621403 2.253628
-0.07948196 -0.1594144 2.240968
-0.05606264 -0.1603153 2.244445
0.009679854 -0.1823367 2.263474
-0.01885921 -0.1580973 2.234246
0.01583755 -0.1678715 2.240071
-0.05370426 -0.1839187 2.261899
-0.2043558 -0.2346954 1.897679
-0.2101347 -0.2377152 1.919951
-0.209738 -0.2524624 1.920054
-0.183887 -0.2294526 1.90439
-0.2109535 -0.2290214 1.9215
-0.3731116 -0.6666381 2.139153
-0.3697639 -0.7102573 2.166037
-0.3714595 -0.6666381 2.11581
-0.3530321 -0.6667132 2.092807
-0.3631954 -0.6436284 2.094182
-0.3299515 -0.6812042 2.106164
-0.3193023 -0.6965419 2.128685
-0.3170316 -0.6584138 2.152324
-0.08389157 -0.193007 1.25198
-0.1028072 -0.1845105 1.219144
-0.09249556 -0.1839281 1.273309
-0.07360172 -0.2069171 1.213251
-0.08160573 -0.2044394 1.160514
-0.0692808 -0.2294526 1.148261
-0.06963718 -0.2526276 1.102653
-0.06936377 -0.2754985 1.121582
-0.07469141 -0.2975206 1.123085
-0.08761859 -0.3166762 1.102015
-0.08472943 -0.3221349 1.131685
-0.1036811 -0.329645 1.053712
-0.1434745 -0.3548812 0.9859892
-0.1823336 -0.362983 0.9254514
-0.2203233 -0.3601157 0.870366
-0.2539186 -0.3783867 0.8820987
-0.3018356 -0.3926448 0.8889841
-0.364492 -0.3994197 0.8908314
-0.3616221 -0.3730077 0.8484149
-0.4538831 -0.361661 0.8459016
-0.5809243 -0.3622038 0.8691953
-0.6115401 -0.3214915 0.8411618
-0.6752691 -0.3486157 0.8774261
-0.6741248 -0.2809612 0.8260409
-0.7167597 -0.2544445 0.8154814
-0.7503234 -0.2373264 0.815195
-0.7776482 -0.2284186 0.8229661
-0.8056419 -0.2294526 0.8252144
-0.8300604 -0.2285401 0.8334469
-0.8508489 -0.2064428 0.8285012
-0.8836839 -0.2064428 0.8390143
-0.9044486 -0.1834331 0.8602494
-0.9056189 -0.2064428 0.8599458
0.03723264 -0.1844561 2.15429
-0.008829772 -0.1591786 2.066187
0.01174498 -0.168752 2.072608
0.02229595 -0.1703547 2.03185
0.003882885 -0.1601871 2.015225
0.03213698 -0.1802378 2.006583
0.03973961 -0.1812377 2.246446
0.04632932 -0.1799322 2.224211
0.05162263 -0.1823578 2.20334
0.0235123 -0.1599271 2.220429
0.06085253 -0.2056399 2.170151
-0.1777645 -0.1834472 2.264535
-0.1540982 -0.2064428 2.253691
-0.1561059 -0.1834331 2.261429
-0.2017893 -0.1841072 2.265816
-0.1716022 -0.2154902 2.24201
-0.1313683 -0.2064428 2.257707
-0.1319813 -0.1834331 2.260069
-0.1086917 -0.2064428 2.261927
-0.06507707 -0.2072618 2.262347
-0.03812861 -0.2064428 2.264825
0.008378983 -0.2294526 2.268817
-0.03826672 -0.2294526 2.265357
-0.05722457 -0.2305522 2.246804
-0.08373481 -0.2294526 2.25736
-0.0782333 -0.2361403 2.23921
-0.03869867 -0.2538465 2.250768
-0.1833468 -0.2522513 1.910102
-0.1878624 -0.2615595 1.92573
-0.2065062 -0.2294526 1.944664
-0.2089591 -0.2524624 1.944028
-0.1936413 -0.266613 1.948002
-0.1844643 -0.2262989 1.92978
-0.1808408 -0.2294526 1.951324
-0.3688019 -0.6666381 2.164264
-0.3751643 -0.6340396 2.138295
-0.3731935 -0.6389278 2.115906
-0.3638349 -0.6206186 2.094017
-0.3454606 -0.6129121 2.076464
-0.3258128 -0.6405518 2.09847
-0.3158404 -0.6555244 2.130317
-0.0696311 -0.2078437 1.290596
-0.08286357 -0.1852877 1.311827
-0.04880148 -0.2294526 1.319976
-0.05610561 -0.2294526 1.270537
-0.05838472 -0.22883 1.242213
-0.06481999 -0.2343259 1.268276
-0.06362396 -0.2284868 1.175072
-0.06430215 -0.2517821 1.153023
-0.06344676 -0.2754722 1.171366
-0.07663715 -0.3152205 1.168628
-0.09836173 -0.3470883 1.158343
-0.1064542 -0.3488795 1.115464
-0.1216926 -0.3544963 1.063995
-0.1665087 -0.3778889 1.002021
-0.2169907 -0.3895795 0.9462751
-0.274808 -0.4082314 0.9419833
-0.3511045 -0.4250262 0.9525199
-0.4390998 -0.4232638 0.9388479
-0.4479051 -0.3964307 0.8893548
-0.5389688 -0.3903438 0.8936415
-0.6124182 -0.3838764 0.9017044
-0.6531668 -0.3700014 0.8948611
-0.7045982 -0.3579031 0.8959926
-0.7337162 -0.3280241 0.8728651
-0.7477703 -0.3418995 0.8927202
-0.7150401 -0.3214915 0.8618507
-0.732832 -0.2760779 0.8290409
-0.7944909 -0.2531127 0.8349321
-0.8336685 -0.2524624 0.8416132
-0.8555219 -0.2294526 0.8342198
-0.8817054 -0.2304882 0.8414145
-0.9011197 -0.2294526 0.8611132
-0.9139407 -0.2064428 0.8815583
-0.9068863 -0.2294526 0.8833886
-0.04507738 -0.176944 1.558659
-0.01279175 -0.1598035 1.979906
0.01708555 -0.1730855 1.961786
0.0319882 -0.1859545 1.976082
0.03972137 -0.2063146 1.98327
0.04041326 -0.1870168 2.127824
0.02245957 -0.1715262 2.122931
0.03560317 -0.1827766 2.033588
0.04943901 -0.2100289 2.011073
0.02838624 -0.1870154 2.101116
0.05907023 -0.2085823 2.133837
0.04699826 -0.2294526 2.248156
0.06966788 -0.2294526 2.206495
0.07171017 -0.2294526 2.159482
-0.1679405 -0.2409322 2.216272
-0.1938151 -0.2260439 2.225177
-0.1903919 -0.2452345 2.210334
-0.1623407 -0.2468481 2.193841
-0.151171 -0.2269543 2.24241
-0.1292889 -0.2289932 2.249692
-0.1067335 -0.2273659 2.25438
-0.1013027 -0.2479513 2.233449
-0.01702303 -0.2767165 2.231545
-0.02933514 -0.2754722 2.230934
-0.0740397 -0.2528274 2.223047
-0.09708369 -0.2524624 2.217189
-0.05300933 -0.2524624 2.230559
-0.1732979 -0.2524624 1.956162
-0.1747411 -0.2283684 1.971058
-0.1829267 -0.2269573 1.998326
-0.1679026 -0.2294526 2.002224
-0.2007573 -0.256164 1.971724
-0.1919776 -0.2294526 1.995977
-0.2000461 -0.2287419 1.970766
-0.1858245 -0.2294526 2.009494
-0.184613 -0.2459478 2.188062
-0.1814218 -0.2294526 2.175763
-0.2152295 -0.2316641 2.229304
-0.2046083 -0.254257 2.207197
-0.370809 -0.6094939 2.165519
-0.3737589 -0.582891 2.142492
-0.3640771 -0.6003094 2.095705
-0.3483417 -0.5976088 2.071394
-0.3235758 -0.5963326 2.081457
-0.3171117 -0.6105852 2.10735
-0.313416 -0.6038865 2.129357
-0.3163941 -0.6156726 2.156076
-0.04999071 -0.205122 1.475273
-0.03280652 -0.2047409 1.513662
-0.05641246 -0.2133937 1.392766
-0.05617094 -0.2063521 1.324973
-0.04672927 -0.2294526 1.344285
-0.06942618 -0.2754722 1.286029
-0.06057191 -0.2754722 1.221835
-0.07468671 -0.3143201 1.224869
-0.0972876 -0.3496636 1.210671
-0.1278343 -0.3797469 1.185386
-0.1253375 -0.3728172 1.139114
-0.1514997 -0.385569 1.084676
-0.195246 -0.4006267 1.023274
-0.2454173 -0.4187688 1.009631
-0.3024683 -0.4317575 0.9998941
-0.3639704 -0.4487425 1.03234
-0.4352797 -0.4454559 1.001097
-0.5142463 -0.4379785 0.9827827
-0.524402 -0.4156463 0.9322741
-0.6042492 -0.4026948 0.9276166
-0.66534 -0.382978 0.9158499
-0.7201243 -0.3713427 0.9204035
-0.7622323 -0.3554643 0.9183654
-0.7760504 -0.3321056 0.893098
-0.7707179 -0.3136182 0.8708193
-0.7754445 -0.2848434 0.8462582
-0.8121592 -0.2754722 0.8503326
-0.859002 -0.2586091 0.8480138
-0.8873549 -0.2535316 0.8637029
-0.893555 -0.2528546 0.8882468
-0.897385 -0.2254173 0.9115677
-0.8913594 -0.2524624 0.911189
-0.8953192 -0.2294526 0.9339333
-0.9159671 -0.205293 0.9069815
-0.03392047 -0.1834331 1.585326
-0.05464834 -0.1693197 1.595561
-0.0335803 -0.1834331 1.561642
-0.02262926 -0.2064428 1.540712
-0.02414554 -0.2308878 1.512259
-0.03071737 -0.2294526 1.49107
-0.04423422 -0.2235274 1.463791
0.004656613 -0.1696852 1.91238
0.02712464 -0.207172 1.944008
0.02152556 -0.1838558 1.920568
0.03817278 -0.2294526 1.981355
0.05351645 -0.2294526 2.009693
0.05326504 -0.2130099 2.08475
0.04617602 -0.2064428 2.081541
0.04550725 -0.2042077 2.060114
0.06899315 -0.2294526 2.132056
-0.1730553 -0.2260685 2.143517
-0.1554313 -0.2294526 2.14809
-0.1788342 -0.2257404 2.165789
-0.17057 -0.2294526 2.133938
-0.1576147 -0.2320316 2.171295
-0.1530291 -0.2524624 2.196256
-0.003440738 -0.2779561 2.22626
0.035097 -0.2750279 2.208136
0.0642094 -0.2639835 2.164646
-0.1442173 -0.2515037 2.221633
-0.1400684 -0.2647378 2.199619
-0.1189569 -0.252879 2.229587
-0.04928148 -0.2754722 2.223175
-0.09552383 -0.2597513 2.211177
-0.05825502 -0.2750243 2.219649
-0.1664333 -0.2401307 2.026377
-0.1606544 -0.2461231 2.004105
-0.1552253 -0.2522357 2.00472
-0.1771479 -0.2681508 1.976053
-0.1668037 -0.2524624 1.978737
-0.1971315 -0.2524624 1.99464
-0.1887056 -0.2427871 2.020598
-0.1682173 -0.2294526 2.033252
-0.1932111 -0.2524624 2.185831
-0.1886574 -0.2294526 2.16324
-0.1835819 -0.2294526 2.140786
-0.2342333 -0.2754722 2.19962
-0.2094172 -0.2723849 2.181626
-0.2970217 -0.2294345 2.253969
-0.3142386 -0.2489709 2.220564
-0.2833811 -0.2696906 2.212059
-0.3071702 -0.2737116 2.202318
-0.2653758 -0.2538469 2.227568
-0.3290913 -0.2984817 2.195185
-0.3035794 -0.2984817 2.188478
-0.2829082 -0.2974838 2.184877
-0.3102209 -0.5538239 2.156674
-0.317133 -0.5861852 2.176904
-0.3293353 -0.3245791 2.196351
-0.3747334 -0.5615506 2.163359
-0.3706104 -0.5659959 2.171936
-0.3718186 -0.5534548 2.116932
-0.3789731 -0.5157703 2.116695
-0.367117 -0.5502523 2.093636
-0.3641436 -0.5749005 2.094392
-0.3570623 -0.574599 2.072002
-0.3430456 -0.574599 2.06573
-0.3212729 -0.574599 2.079843
-0.3119263 -0.5743792 2.108006
-0.3101664 -0.5285795 2.128406
-0.3124538 -0.5515893 2.107348
-0.04944843 -0.2294526 1.426781
-0.04686314 -0.2294526 1.368022
-0.04990816 -0.2652248 1.37334
-0.06532091 -0.2899821 1.332261
-0.08094859 -0.3140141 1.279728
-0.1034166 -0.3532707 1.275395
-0.13352 -0.3852679 1.243132
-0.1752394 -0.4125071 1.209982
-0.1664645 -0.4041328 1.145496
-0.2104578 -0.419409 1.083765
-0.2917244 -0.444712 1.078013
-0.3781783 -0.4613913 1.108298
-0.4361802 -0.4596603 1.066923
-0.5101941 -0.4547014 1.044498
-0.5767242 -0.4433241 1.018974
-0.5926863 -0.4251944 0.9699588
-0.673856 -0.4035618 0.9552822
-0.7411851 -0.3828772 0.9532803
-0.7822744 -0.3641548 0.949684
-0.7882566 -0.3424479 0.9156481
-0.7981985 -0.3217671 0.8904479
-0.8203911 -0.3057196 0.8820593
-0.8651526 -0.2761072 0.8699613
-0.8782856 -0.2754722 0.8908094
-0.882696 -0.2752169 0.9331255
-0.9015347 -0.2294526 0.9560922
-0.9114642 -0.2098151 0.9552144
-0.9190245 -0.1834331 0.9277827
-0.06241387 -0.1656244 1.625476
-0.04030007 -0.1713838 1.631395
-0.03303051 -0.1828355 1.606739
-0.03170037 -0.2064428 1.585902
-0.02962458 -0.1834331 1.657755
-0.02403325 -0.207487 1.569596
-0.01989388 -0.2294526 1.541422
-0.02656502 -0.2558382 1.515957
-0.03048134 -0.2558273 1.538283
-0.03302026 -0.2754722 1.51219
-0.04264838 -0.2294526 1.462304
-0.01461983 -0.163868 1.899365
0.01379186 -0.1831962 1.882682
-0.008840978 -0.1664557 1.877093
0.007800102 -0.1834331 1.857639
0.02038032 -0.2266806 1.941344
0.02285278 -0.2064428 1.909088
0.02392471 -0.252956 1.957912
0.05135387 -0.2505403 2.011569
0.05966777 -0.2294526 2.063879
0.03879952 -0.2847459 2.126399
-0.1672764 -0.2398741 2.121245
-0.150783 -0.2399135 2.149296
-0.1434616 -0.2524624 2.151196
-0.1449102 -0.2524624 2.174591
-0.03936368 -0.2912884 2.202987
-0.0151096 -0.3010302 2.172864
-0.1350507 -0.2754722 2.178289
-0.1171657 -0.2735038 2.202969
-0.07176429 -0.2754722 2.211224
-0.1606544 -0.2602797 2.004105
-0.1493537 -0.2524624 2.030808
-0.1722122 -0.2259941 2.048649
-0.1605671 -0.2294526 2.051671
-0.1756354 -0.2294526 2.061842
-0.1829267 -0.2724757 1.998326
-0.1856232 -0.2294526 2.100337
-0.1622628 -0.2339585 2.098774
-0.1855523 -0.2289349 2.091272
-0.1922181 -0.2521776 2.020249
-0.177991 -0.2380691 2.070921
-0.1857638 -0.2294526 2.045133
-0.1995576 -0.2530815 2.157489
-0.1913277 -0.2505803 2.115004
-0.205085 -0.2754722 2.158978
-0.2531959 -0.3026347 2.17813
-0.2737021 -0.3096139 2.164946
-0.3010251 -0.3214915 2.182653
-0.2901771 -0.3214915 2.160671
-0.2909896 -0.3214915 2.139956
-0.2945873 -0.3214915 2.135756
-0.2901953 -0.3130717 2.136895
-0.2886985 -0.3214915 2.131126
-0.3282676 -0.4871125 2.199933
-0.3089776 -0.4474453 2.179401
-0.3296196 -0.4229842 2.196505
-0.3051674 -0.5285795 2.156782
-0.3105555 -0.5399781 2.178933
-0.3281402 -0.5354288 2.194359
-0.3295252 -0.3905208 2.196858
-0.3044492 -0.409367 2.180311
-0.3009831 -0.3677869 2.183505
-0.3760186 -0.5156562 2.1627
-0.3839185 -0.4774419 2.13444
-0.3857061 -0.4825599 2.112113
-0.3870192 -0.4595501 2.111773
-0.3878759 -0.4595501 2.13952
-0.3702978 -0.5281125 2.171847
-0.3791802 -0.4825599 2.090035
-0.3734571 -0.5068773 2.090086
-0.3123785 -0.5089837 2.123501
-0.3033078 -0.5055697 2.157265
-0.3465725 -0.5285795 2.079323
-0.34634 -0.5481827 2.074142
-0.3235789 -0.5527031 2.081443
-0.3790948 -0.4595501 2.090057
-0.04901236 -0.2631974 1.423245
-0.06719321 -0.3116141 1.407729
-0.06987178 -0.3096523 1.365451
-0.08782744 -0.3329749 1.32931
-0.1187967 -0.3693524 1.33473
-0.1422682 -0.3900585 1.29928
-0.1795462 -0.4136619 1.271495
-0.2319964 -0.4357117 1.243677
-0.2388538 -0.4379268 1.1637
-0.3252697 -0.4578348 1.157247
-0.3851073 -0.4643275 1.161803
-0.4109971 -0.4654366 1.143428
-0.4129193 -0.4655599 1.163729
-0.4397734 -0.4653263 1.120964
-0.4914061 -0.4631405 1.099186
-0.5416656 -0.4588282 1.087102
-0.5697619 -0.4526512 1.060545
-0.6164687 -0.4446529 1.051162
-0.6464622 -0.429873 1.009369
-0.7179671 -0.4092059 1.000547
-0.7669563 -0.3860329 0.9861805
-0.8042331 -0.3685133 0.9932336
-0.8128165 -0.3446857 0.9438407
-0.8400247 -0.3196702 0.9309498
-0.8764934 -0.2828147 0.9150462
-0.8825195 -0.2754722 0.9382714
-0.8894247 -0.2574761 0.9615582
-0.891614 -0.2294526 0.9733224
-0.8884665 -0.2524624 0.9832547
-0.8885275 -0.227532 0.9822023
-0.9071308 -0.2064428 0.9784119
-0.9112051 -0.181286 0.9635922
-0.8751233 -0.160237 1.089545
-0.899958 -0.1864271 1.099131
-0.003062129 -0.1715739 1.85482
-7.987022E-05 -0.1833355 1.830837
-0.01942444 -0.1663675 1.826705
-0.01377672 -0.172128 1.804497
-0.0006117821 -0.2064428 1.836107
-0.03604901 -0.1636357 1.798718
-0.007732511 -0.182989 1.781907
-0.0302701 -0.1666644 1.776446
-0.01305664 -0.1832551 1.752838
-0.02639961 -0.1834331 1.706135
-0.03520584 -0.1757953 1.70385
-0.05105871 -0.2286998 1.580708
-0.04801232 -0.2294526 1.605441
-0.03636688 -0.2064428 1.612498
-0.0340209 -0.2064428 1.632843
-0.02921098 -0.1833185 1.681068
-0.02636659 -0.2068724 1.664514
-0.04459435 -0.2561038 1.559987
-0.04041988 -0.2754722 1.536096
-0.04360491 -0.2941497 1.491583
-0.002350271 -0.2064428 1.807462
0.008187652 -0.2082646 1.859347
-0.006291866 -0.2294526 1.830211
0.008400619 -0.2535746 1.90468
0.007028878 -0.2316068 1.885267
0.01836699 -0.2733867 1.955467
0.01243818 -0.2754722 1.939208
0.03249222 -0.2754722 1.992646
0.05131102 -0.2722714 2.065751
-0.003455997 -0.3082645 2.111044
-0.1510215 -0.2524624 2.101691
-0.05949479 -0.3139325 2.14162
-0.1494176 -0.2528805 2.128531
-0.1391394 -0.2754722 2.152317
-0.1062384 -0.3091433 2.160854
-0.161129 -0.2754722 2.005934
-0.1471971 -0.2754722 2.031368
-0.1495537 -0.2707056 2.053483
-0.1538332 -0.2493888 2.07727
-0.1870636 -0.2752626 2.021729
-0.1927648 -0.2524624 2.09086
-0.1955409 -0.2524624 2.066368
-0.1960804 -0.2757505 2.113727
-0.2310445 -0.3214915 2.128471
-0.2404832 -0.3213451 2.134717
-0.2670779 -0.3195443 2.139416
-0.2861625 -0.3445013 2.161713
-0.2872222 -0.367511 2.161438
-0.2901953 -0.3287816 2.136895
-0.310643 -0.4392054 2.155052
-0.3114403 -0.4789456 2.120075
-0.3066698 -0.4886429 2.179735
-0.3037779 -0.4135306 2.157143
-0.2950447 -0.3915218 2.157764
-0.3058521 -0.4159353 2.131295
-0.3777418 -0.4405831 2.11418
-0.3874723 -0.4380671 2.14136
-0.3818184 -0.4679737 2.159911
-0.3711728 -0.4825599 2.174135
-0.3715982 -0.4128281 2.173821
-0.3707852 -0.4825599 2.081023
-0.3468881 -0.5055697 2.080539
-0.326537 -0.5068274 2.096573
-0.3699774 -0.4595501 2.077909
-0.3740987 -0.434481 2.091857
-0.07010251 -0.3302901 1.473297
-0.09974414 -0.3556593 1.437513
-0.09895599 -0.3512442 1.381767
-0.1415026 -0.3866926 1.376158
-0.1517665 -0.3944433 1.341159
-0.183393 -0.4123845 1.323392
-0.2292942 -0.4309117 1.302823
-0.2861537 -0.4453861 1.284123
-0.2997169 -0.4529049 1.222646
-0.3674489 -0.4615901 1.207775
-0.4162551 -0.4647267 1.188653
-0.4389302 -0.4660357 1.160497
-0.4828585 -0.4652798 1.146907
-0.5349084 -0.4617047 1.129273
-0.597391 -0.4532253 1.102495
-0.6822146 -0.4329634 1.067476
-0.7690895 -0.3988838 1.042325
-0.8242265 -0.3668875 1.04703
-0.8448473 -0.3379778 0.9972725
-0.8696455 -0.2989051 0.9657704
-0.8833913 -0.2754722 0.9964573
-0.8922652 -0.2298439 1.00542
-0.9004686 -0.2075282 1.00589
-0.9006469 -0.1822959 1.005827
-0.8894815 -0.1838652 1.052254
-0.8941653 -0.2073544 1.053703
-0.895288 -0.188379 1.07647
-0.9033504 -0.205447 1.103426
-0.9010808 -0.2064428 1.122612
-0.866128 -0.1624033 1.152905
-0.874928 -0.184352 1.176941
-0.5285663 -0.1604233 2.322653
-0.5651206 -0.1604649 2.327137
-0.5576615 -0.1834331 2.326385
-0.521929 -0.1854311 2.31472
-0.008668661 -0.208232 1.766401
-0.01764733 -0.2087868 1.727712
-0.0260278 -0.2294526 1.706232
-0.02852136 -0.2294526 1.729356
-0.05664688 -0.2524624 1.579429
-0.05657554 -0.2525039 1.603183
-0.04045326 -0.228981 1.631725
-0.02946377 -0.2285703 1.664886
-0.06330502 -0.2754722 1.577701
-0.06405717 -0.3072959 1.535537
-0.01906502 -0.2380874 1.796963
-0.007584512 -0.2661281 1.864298
-0.007950842 -0.2754722 1.876217
0.002777696 -0.2987109 1.950824
-0.02100563 -0.3048013 1.897173
0.02383482 -0.3009951 2.059786
-0.02474731 -0.3175217 2.096541
-0.07787693 -0.3138439 2.12395
-0.149395 -0.2754722 2.102113
-0.1451359 -0.2754722 2.127531
-0.1722122 -0.2976012 2.048649
-0.1497817 -0.2754722 2.078241
-0.1948107 -0.2754722 2.090329
-0.1929829 -0.2754722 2.067031
-0.2325254 -0.3343444 2.103153
-0.1928283 -0.3214915 2.090843
-0.2621444 -0.3329334 2.120402
-0.2556439 -0.3453972 2.101457
-0.2917017 -0.3633068 2.136504
-0.2852701 -0.3445013 2.138173
-0.3263342 -0.4825599 2.092941
-0.3103847 -0.4632361 2.115284
-0.304672 -0.3897837 2.131948
-0.2919068 -0.367511 2.112679
-0.3061023 -0.4158543 2.106768
-0.3154775 -0.4365404 2.082792
-0.3603888 -0.4595501 2.071139
-0.3457941 -0.4727701 2.075986
-0.3676392 -0.4361679 2.069346
-0.3743588 -0.4061104 2.11784
-0.3754257 -0.3905208 2.098907
-0.3739662 -0.4061025 2.094321
-0.1009727 -0.344963 1.527222
-0.1162803 -0.3651289 1.484872
-0.1348248 -0.3790759 1.455897
-0.1346342 -0.3812005 1.418858
-0.1773735 -0.4030544 1.408517
-0.1826393 -0.4086166 1.367246
-0.2276987 -0.4252651 1.352169
-0.278313 -0.4373943 1.334891
-0.3260016 -0.4441357 1.319262
-0.3585773 -0.4536042 1.273628
-0.4216596 -0.4592994 1.238552
-0.4710559 -0.4629334 1.19786
-0.5192542 -0.4618814 1.171838
-0.572557 -0.4560782 1.166623
-0.6519318 -0.4417396 1.156318
-0.742903 -0.4146713 1.120137
-0.8029472 -0.3846337 1.092356
-0.8370419 -0.3592018 1.089592
-0.8569582 -0.3382915 1.066372
-0.8743411 -0.3083038 1.034679
-0.5275577 -0.2078795 2.297897
-0.5770509 -0.1568787 2.32628
-0.5789317 -0.1834331 2.333529
-0.5847687 -0.2071894 2.324675
-0.03017062 -0.2372418 1.751666
-0.04001218 -0.2654356 1.708006
-0.05205005 -0.2754722 1.651936
-0.06278759 -0.2754722 1.626916
-0.09423214 -0.3205389 1.575551
-0.06962711 -0.2754722 1.599833
-0.03015178 -0.2804447 1.816582
-0.03530824 -0.3016625 1.845146
-0.04373842 -0.3189299 1.870482
-0.04252595 -0.3261964 1.908616
-0.02931362 -0.3262084 1.959374
-0.0158115 -0.3229144 2.043931
-0.07195729 -0.3259977 2.092258
-0.1392253 -0.3080842 2.104751
-0.1798871 -0.3214915 2.078229
-0.2505867 -0.3584266 2.075857
-0.2849481 -0.3576134 2.113258
-0.3227596 -0.4455974 2.078267
-0.2994213 -0.3938355 2.086958
-0.3066916 -0.4135306 2.085072
-0.3828362 -0.367511 2.089087
-0.3791654 -0.366361 2.113557
-0.3420724 -0.4365404 2.061979
-0.3396756 -0.4191773 2.052742
-0.3632551 -0.4135306 2.052001
-0.3823883 -0.392405 2.066145
-0.382947 -0.367511 2.065286
-0.1329386 -0.3599431 1.555497
-0.1485488 -0.3760297 1.52211
-0.1626303 -0.3887691 1.485092
-0.1719226 -0.3970535 1.448367
-0.2197366 -0.4122664 1.438393
-0.2248156 -0.4190038 1.396594
-0.2760764 -0.4293708 1.381214
-0.3285659 -0.4350531 1.361968
-0.378733 -0.4397501 1.3342
-0.4308197 -0.4456466 1.298345
-0.4836091 -0.4514006 1.258234
-0.5317605 -0.4552222 1.215476
-0.5935768 -0.44504 1.219672
-0.6473584 -0.4324039 1.223408
-0.7063285 -0.4209093 1.191535
-0.7597133 -0.4025962 1.165752
-0.789521 -0.3905641 1.133841
-0.8247696 -0.3669346 1.125098
-0.85575 -0.338003 1.115322
-0.8905725 -0.2754722 1.054023
-0.8789596 -0.3067251 1.100364
-0.8919421 -0.2754722 1.101211
-0.5925512 -0.2297818 2.294402
-0.5539037 -0.2208578 2.290927
-0.6247906 -0.1839672 2.344891
-0.6201569 -0.2078829 2.337197
-0.6152514 -0.2381849 2.290272
-0.6214 -0.2290453 2.311389
-0.04412919 -0.2783405 1.760964
-0.04412603 -0.2754722 1.701536
-0.09980595 -0.324836 1.618765
-0.07288247 -0.3064446 1.656518
-0.1444345 -0.3620436 1.587993
-0.05782205 -0.3098297 1.79243
-0.06710654 -0.3293976 1.831156
-0.07213247 -0.3406635 1.879408
-0.07033831 -0.3448516 1.942682
-0.06597805 -0.3403435 2.023677
-0.1283388 -0.3412914 2.059144
-0.2012183 -0.3446615 2.059091
-0.2728588 -0.3737845 2.070078
-0.317827 -0.4130567 2.058624
-0.2951311 -0.3932121 2.064299
-0.3779319 -0.3445013 2.090359
-0.3791167 -0.367511 2.137595
-0.3835835 -0.3435943 2.135366
-0.371749 -0.3214915 2.165268
-0.3669344 -0.3006325 2.163659
-0.3838026 -0.3214915 2.136379
-0.3770387 -0.3223733 2.114362
-0.3516398 -0.4135306 2.049637
-0.3638248 -0.3983865 2.046297
-0.3755351 -0.367511 2.043437
-0.3794299 -0.3445013 2.066199
-0.4023999 -0.2112184 2.202869
-0.3799413 -0.2199955 2.208222
-0.4081788 -0.2130785 2.225141
-0.1882446 -0.3865928 1.556324
-0.2021933 -0.3969252 1.515963
-0.21238 -0.4050843 1.477878
-0.2654045 -0.4131488 1.467333
-0.2721192 -0.4209704 1.425442
-0.3269927 -0.4234505 1.408153
-0.382984 -0.4224475 1.384938
-0.4402206 -0.4225624 1.355422
-0.4952099 -0.4290799 1.317311
-0.5455405 -0.4391374 1.271122
-0.6719972 -0.4136426 1.265347
-0.6059812 -0.4262435 1.274905
-0.74475 -0.3999057 1.216682
-0.7971488 -0.3805136 1.168939
-0.8399202 -0.3465384 1.158586
-0.8696936 -0.3075542 1.15054
-0.8813332 -0.2754722 1.151507
-0.8867292 -0.2554833 1.144011
-0.8721508 -0.2547114 1.17686
-0.8703676 -0.2294526 1.173243
-0.8690547 -0.2524624 1.202237
-0.8552647 -0.2282284 1.204334
-0.873325 -0.2302556 1.225774
-0.8772348 -0.2064428 1.223886
-0.8813029 -0.237672 1.248681
-0.8794529 -0.2064428 1.247082
-0.5941867 -0.229557 2.270081
-0.5371412 -0.2225939 2.26845
-0.6527178 -0.1834331 2.343052
-0.648775 -0.2272096 2.327857
-0.6433025 -0.2402823 2.306765
-0.6512401 -0.2064428 2.337357
-0.6369393 -0.2302938 2.282241
-0.6295774 -0.229301 2.260576
-0.07848525 -0.3221429 1.718339
-0.1618668 -0.3706269 1.625256
-0.120012 -0.3485253 1.663135
-0.2051648 -0.3878913 1.594734
-0.1000611 -0.3454564 1.774991
-0.1131263 -0.3575802 1.831374
-0.1195604 -0.3622708 1.898633
-0.1223536 -0.3587963 1.978503
-0.1894049 -0.36619 1.99514
-0.253813 -0.3732625 2.004569
-0.3058456 -0.3769507 2.013976
-0.3722617 -0.3208647 2.089405
-0.3642886 -0.2754475 2.152969
-0.3880799 -0.2544937 2.149314
-0.3852305 -0.2983051 2.135748
-0.409584 -0.2754722 2.138939
-0.4073356 -0.308219 2.130273
-0.4144698 -0.2483151 2.150907
-0.3892104 -0.2294526 2.152035
-0.3239164 -0.367511 2.009287
-0.3582034 -0.367511 2.032531
-0.3845479 -0.3445013 2.041099
-0.3906491 -0.3240354 2.065962
-0.3844153 -0.3445013 2.041936
-0.4193423 -0.2279921 2.169455
-0.4410502 -0.253315 2.1696
-0.4463705 -0.2339519 2.196884
-0.242263 -0.3968879 1.573329
-0.2488876 -0.4008786 1.543491
-0.2571616 -0.4064247 1.506645
-0.8730861 -0.2064428 1.201191
-0.8766106 -0.1815697 1.191099
-0.870844 -0.2064428 1.174818
-0.3101443 -0.4047787 1.495535
-0.3200434 -0.4127182 1.452998
-0.895731 -0.2322841 1.033692
-0.901844 -0.2294526 1.101425
-0.3768862 -0.4053942 1.432191
-0.4360497 -0.3954959 1.405197
-0.5041021 -0.3875833 1.376032
-0.4741309 -0.3557838 1.419949
-0.5578995 -0.4107766 1.326825
-0.6174443 -0.3987323 1.326011
-0.6624821 -0.3921716 1.320148
-0.716645 -0.3931985 1.283186
-0.7956913 -0.3689712 1.226086
-0.8540496 -0.3196332 1.195582
-0.8731565 -0.2754722 1.190255
-0.8715876 -0.2754722 1.225351
-0.8705922 -0.2754722 1.252944
-0.8767592 -0.218013 1.269179
-0.8675163 -0.1834331 1.273951
-0.8575154 -0.2071782 1.300101
-0.8581517 -0.1826654 1.301188
-0.8497267 -0.2294526 1.32611
-0.8404584 -0.2064056 1.326766
-0.8547041 -0.1834331 1.324818
-0.6039926 -0.2291287 2.244656
-0.5679038 -0.2257891 2.255073
-0.4527984 -0.2299259 2.216076
-0.479571 -0.2497522 2.206617
-0.4866505 -0.230929 2.229426
-0.5042564 -0.2631127 2.200275
-0.5570138 -0.2307854 2.234681
-0.5357419 -0.2272844 2.235786
-0.6695443 -0.2294526 2.316285
-0.6655748 -0.2374496 2.300986
-0.676182 -0.2294526 2.298234
-0.6733871 -0.2119313 2.323951
-0.6259659 -0.2383692 2.239948
-0.6539841 -0.2307698 2.257266
-0.140406 -0.3642824 1.714879
-0.2293296 -0.3916783 1.62895
-0.186192 -0.3806081 1.666314
-0.430451 -0.2173421 2.219362
-0.4139576 -0.219717 2.247413
-0.2667874 -0.396762 1.600269
